-0.933532 2.07402 43.0992
-1.05463 2.08048 43.2268
-1.11311 2.07912 43.22
-1.17157 2.07776 43.213
-1.2359 2.08944 43.2289
-1.35233 2.08295 43.3332
-1.46945 2.08027 43.3181
-1.52798 2.07894 43.3104
-1.58648 2.07761 43.3026
-2.01069 2.08718 43.53
-2.12803 2.0846 43.5122
-2.24525 2.08202 43.494
-2.36471 2.07562 43.5958
-2.42338 2.07434 43.5862
-2.48201 2.07307 43.5766
-3.03057 2.08096 43.7733
-3.14789 2.0785 43.7513
-3.26996 2.07219 43.8509
-3.32865 2.07097 43.8395
-3.3873 2.06976 43.828
-3.58345 2.08952 43.9623
-3.64216 2.08833 43.9502
-3.82454 2.08092 44.0366
2.29056 2.0308 42.1869
2.23363 2.02921 42.1867
1.77853 2.03723 42.3387
1.66403 2.03413 42.3362
1.60677 2.03259 42.3349
1.5495 2.03105 42.3334
1.49223 2.02952 42.3318
1.38552 2.02256 42.4415
1.27063 2.0195 42.4375
0.923371 2.03137 42.5818
0.865689 2.02988 42.5789
0.750325 2.0269 42.5729
0.583022 2.01853 42.6776
0.525193 2.01705 42.6741
0.462517 2.02816 42.693
0.344434 2.03588 42.7657
0.230906 2.03102 42.8153
0.172883 2.02957 42.8111
0.114867 2.02813 42.8067
0.0568582 2.02669 42.8022
-0.0551133 2.01986 42.909
-0.469825 2.03155 43.0351
-0.528112 2.03015 43.0294
-0.586385 2.02876 43.0236
-0.700624 2.02201 43.1292
-0.817386 2.01924 43.1168
-0.875743 2.01786 43.1104
-0.934082 2.01648 43.1039
-1.35288 2.02498 43.3377
-1.46999 2.0223 43.3226
-1.52852 2.02096 43.3149
-1.58702 2.01963 43.307
-1.76302 2.01164 43.402
-1.82785 2.0235 43.4167
-1.88642 2.02219 43.4083
-2.01122 2.02878 43.5342
-2.12856 2.02619 43.5164
-2.24578 2.02362 43.4981
-2.36522 2.01705 43.5998
-2.7924 2.03094 43.6978
-2.91359 2.02445 43.7986
-3.03106 2.02199 43.777
-3.14838 2.01954 43.755
-3.27042 2.01306 43.8545
-3.32911 2.01185 43.8431
-3.82497 2.0214 44.04
-4.08931 2.03614 44.2849
-4.14446 2.03701 44.2092
-4.18395 2.01036 44.0862
-4.23871 2.01126 44.0112
2.40712 1.99872 42.3507
2.2901 1.97527 42.1932
2.23316 1.97367 42.193
2.17621 1.97208 42.1927
2.11925 1.97049 42.1923
2.06228 1.9689 42.1918
2.0053 1.96732 42.1912
1.94435 1.9779 42.2127
1.88732 1.97633 42.2118
1.77803 1.98136 42.3447
1.66353 1.97825 42.3423
1.60626 1.9767 42.3408
1.54899 1.97515 42.3393
1.49172 1.97361 42.3377
0.980521 1.97648 42.5902
0.865151 1.97347 42.5845
0.807467 1.97197 42.5815
0.749783 1.97048 42.5784
0.582485 1.96191 42.683
0.230355 1.97413 42.8206
0.17233 1.97267 42.8163
0.114312 1.97122 42.8119
0.0563018 1.96978 42.8074
-0.0556607 1.96278 42.9142
-0.171937 1.9599 42.9043
-0.293483 1.96978 42.9167
-0.470383 1.97419 43.04
-0.528671 1.97279 43.0343
-0.586945 1.97139 43.0285
-0.701173 1.96446 43.134
-1.17854 1.97518 43.2452
-1.23701 1.97383 43.238
-1.35389 1.97114 43.2234
-1.47054 1.9643 43.327
-1.52906 1.96297 43.3193
-1.58756 1.96164 43.3114
-2.12908 1.96778 43.5205
-2.24631 1.96521 43.5022
-2.36573 1.95846 43.6038
-2.4244 1.95719 43.5942
-2.48303 1.95592 43.5845
-2.66867 1.96126 43.6989
-2.73422 1.97336 43.712
-2.79291 1.97212 43.7017
-2.91408 1.96546 43.8023
-3.03154 1.963 43.7807
-3.58436 1.97078 43.9693
-3.64307 1.9696 43.9571
-3.8254 1.96187 44.0433
2.28963 1.91972 42.1995
2.23269 1.91811 42.1993
2.17574 1.91651 42.199
2.11878 1.9149 42.1986
2.0618 1.91331 42.198
1.60575 1.92078 42.3468
1.54848 1.91923 42.3453
1.4912 1.91767 42.3436
1.3845 1.91034 42.4532
1.26959 1.90725 42.4491
1.20773 1.91804 42.4693
1.15024 1.9165 42.4669
0.979987 1.92006 42.5958
0.864612 1.91704 42.5901
0.806925 1.91553 42.5871
0.749239 1.91403 42.5839
0.340776 1.92439 42.7185
0.229802 1.91722 42.8259
0.171775 1.91576 42.8216
0.113755 1.9143 42.8172
0.0557434 1.91285 42.8126
-0.0562101 1.90567 42.9193
-0.529232 1.9154 43.0392
-0.587507 1.914 43.0334
-0.701724 1.9069 43.1388
-0.818489 1.90411 43.1263
-0.876847 1.90273 43.1198
-0.935188 1.90134 43.1133
-1.12061 1.91871 43.2569
-1.1791 1.91735 43.2498
-1.23757 1.916 43.2426
-1.35445 1.9133 43.2279
-1.47108 1.90629 43.3315
-1.8938 1.91886 43.4399
-2.01228 1.91193 43.5426
-2.12961 1.90935 43.5247
-2.24683 1.90678 43.5063
-2.36624 1.89986 43.6079
-2.42491 1.8986 43.5982
-2.48354 1.89733 43.5885
-2.91457 1.90646 43.8061
-3.03203 1.90401 43.7844
-3.14934 1.90158 43.7623
-3.33724 1.90703 43.8737
-3.39591 1.90584 43.8621
-3.58482 1.9114 43.9728
-3.64352 1.91022 43.9606
-3.82583 1.90232 44.0467
-4.09013 1.91624 44.2914
-4.14902 1.9151 44.2781
2.28917 1.86415 42.2059
2.23222 1.86253 42.2057
1.77703 1.86958 42.3569
1.66251 1.86642 42.3543
1.60524 1.86485 42.3528
1.54796 1.86328 42.3513
1.49068 1.86172 42.3496
1.38398 1.85421 42.459
0.97945 1.86363 42.6015
0.86407 1.86059 42.5957
0.80638 1.85908 42.5927
0.748692 1.85757 42.5895
0.576599 1.8611 42.7165
0.51873 1.8596 42.7129
0.460865 1.85812 42.7091
0.340213 1.86764 42.7239
0.229246 1.86029 42.8312
0.171218 1.85882 42.8268
0.113196 1.85736 42.8224
-0.299934 1.86811 42.9494
-0.471506 1.85941 43.0499
-0.529795 1.858 43.0442
-0.588071 1.8566 43.0383
-0.702277 1.84932 43.1436
-0.819043 1.84653 43.131
-1.23813 1.85815 43.2472
-1.35501 1.85545 43.2324
-1.47163 1.84827 43.3359
-1.53015 1.84693 43.3281
-1.58865 1.8456 43.3202
-1.77087 1.85015 43.438
-1.83575 1.86189 43.4528
-1.89435 1.86059 43.4442
-2.01214 1.85574 43.4868
-2.13015 1.85091 43.5288
-2.18877 1.84962 43.5197
-2.24736 1.84834 43.5104
-2.67651 1.85692 43.7301
-2.73523 1.85568 43.7198
-2.79392 1.85444 43.7094
-2.91313 1.84971 43.7491
-3.03252 1.845 43.7882
-3.14982 1.84258 43.766
-3.58528 1.852 43.9763
-3.64398 1.85083 43.9641
-3.82626 1.84277 44.0501
-4.09054 1.85627 44.2947
-4.14571 1.85743 44.2189
-4.20067 1.8586 44.1432
-4.25543 1.85976 44.0678
2.40575 1.83139 42.37
2.34563 1.81019 42.2125
2.2887 1.80855 42.2123
2.23175 1.80692 42.212
2.17479 1.80529 42.2116
2.06083 1.80205 42.2105
1.9999 1.81248 42.232
1.94286 1.81088 42.2312
1.88181 1.82134 42.2525
1.77207 1.8159 42.3067
1.66199 1.81048 42.3603
1.60472 1.8089 42.3588
1.54744 1.80732 42.3572
1.49015 1.80574 42.3555
1.14471 1.81633 42.5009
1.08718 1.81479 42.4984
0.97891 1.80718 42.6072
0.863525 1.80412 42.6013
0.805833 1.8026 42.5982
0.748143 1.80109 42.5951
0.228688 1.80334 42.8365
0.170658 1.80187 42.8321
0.112636 1.80041 42.8276
0.0546205 1.79894 42.823
-0.0573148 1.79141 42.9296
-0.178867 1.80112 42.9423
-0.237026 1.79968 42.9371
-0.300507 1.81087 42.9545
-0.47207 1.802 43.0549
-0.53036 1.80059 43.0491
-0.588637 1.79918 43.0432
-1.12173 1.80301 43.2662
-1.23869 1.80029 43.2518
-1.35557 1.79759 43.237
-1.47218 1.79023 43.3404
-1.5307 1.7889 43.3326
-1.5892 1.78756 43.3246
-2.01268 1.79737 43.491
-2.13068 1.79245 43.533
-2.1893 1.79117 43.5238
-2.24789 1.78989 43.5145
-2.43258 1.79454 43.6295
-2.49125 1.79329 43.6197
-2.55659 1.80523 43.633
-2.67702 1.79805 43.734
-2.73574 1.79682 43.7237
-2.79443 1.79559 43.7133
-2.91363 1.79077 43.7529
-3.40411 1.80083 43.8927
-3.58574 1.79259 43.9798
-3.64443 1.79143 43.9676
-3.82669 1.7832 44.0535
2.34516 1.75459 42.2189
2.28822 1.75294 42.2187
2.23127 1.7513 42.2183
2.17431 1.74966 42.2179
1.76711 1.76237 42.2564
1.66148 1.75451 42.3664
1.6042 1.75292 42.3649
1.54692 1.75133 42.3632
1.48963 1.74975 42.3615
1.38294 1.74188 42.4708
1.26363 1.75094 42.489
1.2017 1.7616 42.5091
1.14417 1.76005 42.5067
1.08663 1.7585 42.5041
0.978369 1.75071 42.6129
0.862979 1.74764 42.607
0.805284 1.74611 42.6038
0.454869 1.75707 42.7426
0.339079 1.75409 42.7346
0.228129 1.74638 42.8418
0.170097 1.7449 42.8374
0.112073 1.74343 42.8329
0.0540562 1.74196 42.8283
-0.05787 1.73425 42.9347
-0.472635 1.74457 43.0598
-0.530926 1.74315 43.054
-0.589204 1.74174 43.0481
-0.705714 1.73892 43.0359
-0.820155 1.73131 43.1406
-0.884213 1.74267 43.1569
-0.942587 1.74128 43.1503
-1.12229 1.74513 43.2708
-1.23925 1.74241 43.2564
-1.35614 1.73971 43.2415
-1.77822 1.74661 43.4699
-1.83685 1.7453 43.4614
-1.89545 1.744 43.4528
-2.01322 1.73898 43.4953
-2.13121 1.73398 43.5372
-2.18983 1.7327 43.5279
-2.24842 1.73142 43.5186
-2.73625 1.73794 43.7276
-2.79494 1.73671 43.7171
-2.91221 1.73428 43.6959
-3.03349 1.72695 43.7957
-3.15787 1.73786 43.7967
-3.34589 1.74274 43.9081
-3.40459 1.74157 43.8964
-3.58619 1.73316 43.9833
-3.64489 1.73201 43.971
-4.09135 1.7363 44.3012
-4.14653 1.73766 44.2254
-4.20151 1.73902 44.1497
-4.25628 1.74038 44.0743
1.88079 1.70979 42.2649
1.77104 1.70415 42.3189
1.66096 1.69853 42.3725
1.60368 1.69692 42.3709
1.54639 1.69533 42.3692
1.4891 1.69373 42.3675
1.38242 1.68568 42.4767
1.08608 1.70219 42.5099
0.977824 1.69422 42.6186
0.86243 1.69113 42.6126
0.804733 1.6896 42.6095
0.747038 1.68806 42.6062
0.574939 1.69093 42.733
0.454303 1.70027 42.7481
0.338509 1.69729 42.74
0.227567 1.6894 42.8471
0.169534 1.68791 42.8427
0.111508 1.68644 42.8381
-0.243475 1.6978 42.97
-0.301658 1.69636 42.9646
-0.473202 1.68712 43.0648
-0.531494 1.6857 43.059
-0.589772 1.68428 43.053
-0.706284 1.68146 43.0407
-1.23982 1.68452 43.261
-1.3567 1.68181 43.2461
-1.47327 1.67411 43.3494
-1.53789 1.68566 43.3645
-1.59643 1.68434 43.3564
-1.77877 1.68829 43.4743
-1.896 1.68568 43.4571
-2.01376 1.68058 43.4995
-2.13174 1.67549 43.5413
-2.49899 1.68904 43.651
-2.55765 1.6878 43.641
-2.67804 1.68028 43.7419
-2.79545 1.67783 43.721
-2.91271 1.6754 43.6997
-3.03398 1.6679 43.7994
-3.58665 1.67373 43.9868
-3.64534 1.67258 43.9745
-3.70399 1.67144 43.9622
-3.82755 1.66404 44.0602
-4.09176 1.6763 44.3045
-4.14695 1.67775 44.2287
-4.20193 1.67922 44.1529
-4.2567 1.68068 44.0775
2.40434 1.66385 42.3895
2.34422 1.64332 42.2317
2.28727 1.64165 42.2315
2.23031 1.63998 42.2311
2.17333 1.63832 42.2306
2.05544 1.64695 42.2516
1.9984 1.6453 42.2508
1.94135 1.64366 42.2499
1.88027 1.65399 42.2711
1.77052 1.64825 42.3251
1.66044 1.64252 42.3785
1.60316 1.64091 42.3769
1.54587 1.6393 42.3752
1.20061 1.64899 42.5208
1.14307 1.64742 42.5183
1.08553 1.64586 42.5157
0.977278 1.63771 42.6243
0.861878 1.63461 42.6183
0.804179 1.63306 42.6151
0.746482 1.63153 42.6118
0.337938 1.64046 42.7454
0.227003 1.6324 42.8524
0.168969 1.63091 42.848
0.110941 1.62943 42.8434
0.0529216 1.62795 42.8387
-0.0642097 1.63238 42.9679
-0.185857 1.64196 42.9804
-0.244052 1.64052 42.9751
-0.302236 1.63907 42.9697
-0.473771 1.62966 43.0698
-0.532064 1.62823 43.0639
-0.590343 1.62681 43.0579
-0.949468 1.6386 43.1827
-1.00786 1.63723 43.1759
-1.12342 1.62934 43.2801
-1.24038 1.62661 43.2656
-1.35726 1.6239 43.2506
-1.47382 1.61603 43.3538
-1.89655 1.62735 43.4614
-2.01431 1.62217 43.5037
-2.13228 1.61699 43.5455
-2.1909 1.61572 43.5363
-2.25601 1.62747 43.55
-2.44083 1.63155 43.6649
-2.49952 1.6303 43.655
-2.55818 1.62906 43.645
-2.67856 1.62138 43.7458
-2.79596 1.61893 43.7249
-3.34685 1.62418 43.9154
-3.40555 1.62301 43.9036
-3.4642 1.62186 43.8917
-3.5871 1.61429 43.9903
-3.64579 1.61314 43.978
-3.70444 1.61201 43.9656
-4.09216 1.61628 44.3077
-4.14736 1.61784 44.2319
-4.20234 1.61941 44.1562
-4.25713 1.62097 44.0808
2.28679 1.58597 42.2379
2.22982 1.58429 42.2375
2.17284 1.58261 42.237
1.76553 1.5949 42.2749
1.65992 1.58649 42.3846
1.60263 1.58487 42.383
1.54534 1.58326 42.3813
1.48804 1.58164 42.3794
1.3732 1.58474 42.4279
1.26201 1.58214 42.5066
1.20006 1.59266 42.5266
1.14252 1.59108 42.5241
1.08497 1.58951 42.5215
0.973305 1.58378 42.5729
0.453164 1.58664 42.759
0.337364 1.58362 42.7508
0.226438 1.57538 42.8578
0.168401 1.57389 42.8533
0.110372 1.5724 42.8487
0.0523514 1.57092 42.844
-0.36099 1.58033 42.9693
-0.474341 1.57218 43.0748
-0.590915 1.56933 43.0629
-0.707429 1.5665 43.0505
-0.827524 1.57099 43.1779
-0.891639 1.58224 43.1942
-0.950046 1.58086 43.1875
-1.00844 1.57948 43.1806
-1.12398 1.57142 43.2848
-1.24095 1.56869 43.2702
-1.77988 1.57161 43.483
-1.8971 1.56901 43.4657
-2.01421 1.56643 43.448
-2.13281 1.55848 43.5497
-2.19143 1.55721 43.5404
-2.55871 1.57032 43.649
-2.67907 1.56246 43.7498
-2.79647 1.56002 43.7288
-2.91373 1.55761 43.7074
-3.042 1.56296 43.8304
-3.10069 1.56177 43.8192
-3.16645 1.57379 43.8313
-3.34734 1.56487 43.919
-3.40603 1.56372 43.9072
-3.46468 1.56257 43.8953
-4.09257 1.55626 44.311
-4.14777 1.55792 44.2352
-4.20276 1.55958 44.1594
-4.25755 1.56124 44.084
2.40339 1.55206 42.4026
1.93633 1.54397 42.2847
1.87923 1.54232 42.2836
1.76948 1.53638 42.3374
1.65939 1.53044 42.3907
1.6021 1.52882 42.3891
1.5448 1.52719 42.3873
1.4875 1.52557 42.3854
1.14196 1.53472 42.5299
1.08442 1.53314 42.5273
0.972748 1.52732 42.5787
0.860769 1.5215 42.6296
0.803065 1.51994 42.6263
0.740661 1.5306 42.6454
0.568416 1.53284 42.7722
0.452592 1.52979 42.7645
0.394687 1.52828 42.7604
0.336788 1.52677 42.7562
0.22587 1.51834 42.8631
-0.0746191 1.53569 42.8845
-0.187014 1.52736 42.9907
-0.245211 1.52591 42.9854
-0.303398 1.52446 42.9799
-0.361572 1.52301 42.9743
-0.474913 1.51468 43.0798
-0.591488 1.51183 43.0678
-1.00902 1.52172 43.1854
-1.12455 1.51348 43.2895
-1.24151 1.51075 43.2749
-1.3584 1.50804 43.2598
-1.48102 1.51259 43.3859
-1.54569 1.52403 43.401
-1.60426 1.52271 43.3929
-1.78043 1.51325 43.4874
-1.89765 1.51065 43.47
-2.4419 1.51403 43.6731
-2.50058 1.51279 43.6631
-2.55924 1.51156 43.653
-2.67958 1.50353 43.7537
-2.79698 1.5011 43.7327
-2.91423 1.49869 43.7112
-3.34782 1.50556 43.9227
-3.4065 1.50441 43.9108
-3.46515 1.50327 43.8989
-3.58801 1.49536 43.9973
-3.6467 1.49423 43.985
-3.71278 1.50642 43.996
-3.83641 1.49856 44.0941
-4.25797 1.50151 44.0872
19.0354 3.52674 107.798
2.40291 1.49612 42.4091
2.34278 1.47625 42.2511
2.28581 1.47454 42.2508
2.22884 1.47284 42.2503
2.16799 1.48297 42.2721
2.05392 1.47961 42.2706
1.9929 1.48977 42.292
1.9358 1.48811 42.2909
1.8787 1.48645 42.2898
1.76447 1.48315 42.2872
1.65886 1.47438 42.3968
1.60157 1.47274 42.3951
1.2565 1.48153 42.5409
1.19895 1.47993 42.5384
1.14141 1.47834 42.5358
1.08386 1.47676 42.5331
0.972189 1.47083 42.5844
0.860211 1.46492 42.6353
0.802505 1.46336 42.632
0.394111 1.47141 42.7659
0.33621 1.46989 42.7617
0.167261 1.45979 42.8639
0.109229 1.45829 42.8593
0.0460738 1.46914 42.8771
-0.0731869 1.47575 42.9481
-0.187595 1.47003 42.9959
-0.245794 1.46858 42.9905
-0.303981 1.46712 42.985
-0.362156 1.46567 42.9794
-0.475487 1.45717 43.0848
-0.892798 1.46671 43.2039
-0.951206 1.46532 43.197
-1.0096 1.46394 43.1901
-1.12572 1.45836 43.2351
-1.24208 1.45279 43.2795
-1.35896 1.45008 43.2644
-1.78099 1.45488 43.4918
-1.89821 1.45228 43.4744
-2.01532 1.4497 43.4566
-2.13388 1.44141 43.5581
-2.19902 1.45305 43.5719
-2.25763 1.45179 43.5624
-2.44243 1.45525 43.6772
-2.50112 1.45401 43.6672
-2.55977 1.45278 43.6571
-2.68009 1.44459 43.7577
-3.10878 1.45664 43.8501
-3.16746 1.45548 43.8388
-3.3483 1.44624 43.9263
-3.40698 1.44509 43.9145
-3.46563 1.44395 43.9025
-3.58847 1.43588 44.0009
-4.14859 1.43804 44.2417
-4.20359 1.43991 44.1659
-4.25839 1.44176 44.0905
1.76393 1.42724 42.2934
1.60103 1.41664 42.4012
1.54373 1.415 42.3994
1.48642 1.41336 42.3975
1.36746 1.42206 42.4155
1.25595 1.42515 42.5468
1.1984 1.42354 42.5443
1.14085 1.42194 42.5416
1.08329 1.42035 42.5389
0.971628 1.41433 42.5902
0.567273 1.41911 42.7834
0.451441 1.41604 42.7754
0.393533 1.41452 42.7713
0.33563 1.413 42.7671
0.166688 1.40271 42.8693
0.108655 1.40121 42.8646
-0.246377 1.41123 42.9957
-0.304566 1.40977 42.9901
-0.362742 1.40832 42.9845
-0.476062 1.39964 43.0898
-0.592639 1.39677 43.0777
-0.714751 1.40641 43.0879
-0.893379 1.40892 43.2087
-0.951787 1.40753 43.2018
-1.01018 1.40614 43.1949
-1.12629 1.40047 43.2398
-1.54683 1.40761 43.41
-1.6054 1.40629 43.4018
-1.66393 1.40497 43.3935
-1.78154 1.39649 43.4962
-1.89876 1.39389 43.4787
-2.01587 1.39132 43.4608
-2.44296 1.39645 43.6813
-2.50165 1.39522 43.6712
-2.5603 1.39399 43.6611
-2.68061 1.38563 43.7616
-2.798 1.38322 43.7405
-2.92219 1.39386 43.7421
-3.10928 1.39746 43.8539
-3.16796 1.3963 43.8425
-3.2266 1.39515 43.831
-3.34878 1.3869 43.93
-3.40746 1.38576 43.9181
-3.84489 1.39248 44.1247
-4.25881 1.38201 44.0937
2.40195 1.38419 42.4222
1.99185 1.37802 42.3046
1.93475 1.37633 42.3035
1.87764 1.37465 42.3023
1.7634 1.37131 42.2996
1.6005 1.36052 42.4073
1.54319 1.35887 42.4055
1.14029 1.36553 42.5475
1.08273 1.36392 42.5447
0.967618 1.36074 42.5389
0.859088 1.3517 42.6467
0.801377 1.35012 42.6433
0.738947 1.36065 42.6624
0.676452 1.37119 42.6813
0.566698 1.36222 42.7889
0.450863 1.35914 42.7809
0.392953 1.35761 42.7768
0.335048 1.35608 42.7725
-0.0763962 1.36419 42.9003
-0.188762 1.35533 43.0063
-0.246963 1.35386 43.0008
-0.305152 1.3524 42.9953
-0.36333 1.35095 42.9896
-0.476638 1.34209 43.0948
-0.95237 1.34972 43.2067
-1.01076 1.34833 43.1997
-1.12687 1.34258 43.2445
-1.24322 1.33684 43.2888
-1.30763 1.3481 43.3041
-1.36609 1.34675 43.2964
-1.54741 1.34938 43.4145
-1.60597 1.34805 43.4063
-1.6645 1.34674 43.398
-1.7821 1.33809 43.5006
-2.26529 1.34743 43.594
-2.4435 1.33765 43.6854
-2.50218 1.33642 43.6753
-2.56083 1.33519 43.6651
-2.68112 1.32666 43.7656
-3.16846 1.33712 43.8463
-3.2271 1.33597 43.8348
-3.34926 1.32755 43.9336
-3.40794 1.32642 43.9217
-3.46658 1.32529 43.9097
-3.58938 1.31689 44.0079
-3.72163 1.34106 44.03
-3.84534 1.33275 44.1281
2.39078 1.33411 42.3159
2.33753 1.32068 42.2931
2.28052 1.31895 42.2926
2.21965 1.32894 42.3144
2.16148 1.31845 42.2352
2.05238 1.31208 42.2896
1.99133 1.32211 42.311
1.93422 1.32041 42.3098
1.87711 1.31872 42.3086
1.76286 1.31536 42.3058
1.36201 1.32155 42.4498
1.25483 1.31232 42.5587
1.19728 1.3107 42.5561
1.13972 1.30909 42.5534
1.08216 1.30748 42.5506
0.967047 1.30428 42.5447
0.858523 1.29506 42.6524
0.450283 1.30222 42.7865
0.392371 1.30068 42.7823
0.334464 1.29915 42.778
0.165536 1.2885 42.88
0.0443202 1.29772 42.893
-0.076992 1.30699 42.9055
-0.189348 1.29795 43.0115
-0.24755 1.29648 43.006
-0.30574 1.29502 43.0004
-0.363918 1.29356 42.9947
-0.721535 1.30363 43.1205
-0.894545 1.29329 43.2184
-0.952954 1.29189 43.2115
-1.01134 1.29051 43.2045
-1.12745 1.28466 43.2492
-1.24379 1.27884 43.2934
-1.66508 1.28849 43.4025
-1.78265 1.27967 43.505
-1.89987 1.27707 43.4874
-2.02336 1.28726 43.4924
-2.142 1.2785 43.594
-2.20719 1.29003 43.6077
-2.26584 1.28878 43.5982
-2.44403 1.27883 43.6894
-2.50271 1.2776 43.6794
-2.56136 1.27638 43.6692
-2.93018 1.28882 43.7731
-3.11029 1.27907 43.8615
-3.16896 1.27792 43.8501
-3.2276 1.27677 43.8385
-3.34974 1.26819 43.9373
-3.40841 1.26707 43.9254
-3.46705 1.26595 43.9133
-3.84578 1.273 44.1316
-4.16538 1.28478 44.2992
-4.20483 1.26031 44.1757
-4.25965 1.26246 44.1002
2.40097 1.27218 42.4354
1.87657 1.26277 42.3149
1.76231 1.25939 42.312
1.59942 1.24823 42.4195
1.5421 1.24656 42.4176
1.48051 1.25673 42.4379
1.36145 1.26529 42.4558
1.25427 1.25588 42.5646
1.19671 1.25425 42.562
1.13916 1.25263 42.5593
1.0816 1.25101 42.5564
0.675283 1.25771 42.6926
0.56264 1.25149 42.7425
0.4497 1.24528 42.792
0.391787 1.24374 42.7878
0.333879 1.2422 42.7835
-0.189936 1.24055 43.0167
-0.248139 1.23908 43.0111
-0.30633 1.23761 43.0055
-0.364509 1.23615 42.9998
-0.477796 1.22695 43.1049
-0.599929 1.23643 43.1154
-0.722132 1.24596 43.1255
-0.89513 1.23545 43.2232
-0.95354 1.23405 43.2163
-1.01193 1.23266 43.2093
-1.54855 1.23287 43.4236
-1.60711 1.23154 43.4153
-1.66565 1.23023 43.407
-1.78293 1.22443 43.4496
-1.90042 1.21865 43.4917
-2.32501 1.22887 43.5926
-2.44457 1.21999 43.6935
-2.50325 1.21877 43.6834
-2.56189 1.21755 43.6732
-2.68062 1.21191 43.713
-2.80644 1.21921 43.7755
-2.93071 1.22977 43.777
-3.11079 1.21985 43.8653
-3.16947 1.21871 43.8538
-3.2281 1.21757 43.8423
-3.72257 1.2219 44.0371
-3.84623 1.21325 44.135
2.40048 1.21614 42.442
2.04737 1.21194 42.3248
1.99027 1.21022 42.3237
1.93316 1.20851 42.3225
1.87604 1.2068 42.3212
1.76177 1.2034 42.3183
1.59887 1.19205 42.4257
1.54156 1.19037 42.4237
1.25371 1.19942 42.5706
1.19615 1.19778 42.5679
1.13859 1.19615 42.5652
1.08103 1.19453 42.5623
0.965898 1.1913 42.5562
0.852713 1.1937 42.6864
0.794963 1.19211 42.6829
0.732474 1.20252 42.7019
0.674695 1.20094 42.6982
0.562054 1.19463 42.7481
0.449116 1.18833 42.7975
0.391201 1.18678 42.7933
0.0379762 1.19552 42.9263
-0.0781885 1.19253 42.9161
-0.190525 1.18314 43.0219
-0.248729 1.18167 43.0163
-0.306921 1.1802 43.0107
-0.365101 1.17873 43.0049
-0.478377 1.16935 43.1099
-0.895717 1.17759 43.2281
-0.954126 1.1762 43.2211
-1.01252 1.17481 43.214
-1.12861 1.16879 43.2587
-1.25089 1.17529 43.3257
-1.30937 1.17394 43.318
-1.37385 1.1851 43.3332
-1.54913 1.17459 43.4282
-1.60769 1.17327 43.4199
-1.66622 1.17195 43.4115
-1.78377 1.16279 43.5138
-2.2083 1.17267 43.6162
-2.26695 1.17143 43.6066
-2.32556 1.17019 43.5968
-2.4451 1.16115 43.6976
-2.56242 1.15872 43.6773
-3.1113 1.16062 43.8691
-3.16997 1.15948 43.8576
-3.2286 1.15835 43.846
-3.35069 1.14944 43.9446
-3.40937 1.14833 43.9326
-3.47531 1.16025 43.9439
-3.60562 1.16445 44.0658
-3.72304 1.1623 44.0406
-3.84667 1.15348 44.1385
-4.16623 1.16463 44.3058
2.38927 1.16648 42.3357
2.33223 1.16471 42.3352
2.16029 1.15384 42.2807
2.04684 1.15598 42.3312
1.98974 1.15425 42.33
1.93262 1.15253 42.3288
1.8755 1.15081 42.3275
1.76122 1.14739 42.3245
1.36031 1.1527 42.4679
1.25314 1.14294 42.5765
1.19558 1.14129 42.5738
1.13802 1.13965 42.5711
1.08045 1.13802 42.5682
0.96532 1.13478 42.5621
0.561466 1.13775 42.7537
0.44853 1.13135 42.803
0.390613 1.1298 42.7988
0.332702 1.12825 42.7944
0.158689 1.12918 42.9188
0.0373778 1.13827 42.9317
-0.0787893 1.13528 42.9214
-0.249321 1.12423 43.0215
-0.307514 1.12276 43.0158
-0.665011 1.13201 43.1419
-0.723329 1.13059 43.1354
-0.896304 1.11972 43.2329
-0.954714 1.11832 43.2259
-1.0131 1.11693 43.2189
-1.12983 1.11417 43.2043
-1.5497 1.1163 43.4327
-1.60826 1.11498 43.4244
-1.6668 1.11366 43.416
-1.78406 1.10769 43.4585
-1.90154 1.10174 43.5005
-2.03147 1.12446 43.5284
-2.20886 1.11398 43.6204
-2.2675 1.11274 43.6108
-2.32611 1.1115 43.601
-2.44563 1.10229 43.7018
-2.8731 1.11278 43.7959
-2.93176 1.11162 43.7848
-3.1118 1.10138 43.8729
-3.17047 1.10025 43.8614
-3.2291 1.09912 43.8498
-3.35117 1.09004 43.9483
-3.7235 1.10269 44.0441
-3.84712 1.09371 44.1419
-4.16666 1.10455 44.3092
-4.22168 1.10699 44.2329
-4.27648 1.10941 44.157
2.39949 1.10399 42.4552
1.9892 1.09826 42.3364
1.93208 1.09652 42.3352
1.87495 1.0948 42.3338
1.76067 1.09136 42.3307
1.59778 1.07963 42.438
1.53619 1.08966 42.4583
1.47883 1.08798 42.4562
1.35974 1.09638 42.4739
1.19501 1.08478 42.5798
1.13745 1.08314 42.577
1.07988 1.0815 42.574
0.731296 1.08894 42.7133
0.673513 1.08735 42.7096
0.560876 1.08085 42.7593
0.447942 1.07436 42.8086
0.390023 1.0728 42.8043
0.33211 1.07125 42.7999
-0.0793916 1.078 42.9267
-0.249914 1.06678 43.0267
-0.308108 1.06531 43.021
-0.366289 1.06384 43.0152
-0.485052 1.06636 43.1429
-0.607276 1.07573 43.1533
-0.665611 1.0743 43.1469
-0.723929 1.07288 43.1404
-0.896893 1.06183 43.2378
-0.955302 1.06044 43.2308
-1.31654 1.07018 43.3504
-1.37503 1.06884 43.3425
-1.55028 1.05799 43.4373
-1.60884 1.05667 43.4289
-1.66737 1.05536 43.4204
-1.78462 1.0493 43.4629
-2.20941 1.05526 43.6247
-2.26805 1.05403 43.615
-2.32666 1.0528 43.6052
-2.44617 1.04341 43.7059
-2.56349 1.041 43.6854
-2.68748 1.05137 43.6876
-2.81494 1.05485 43.8107
-2.87363 1.05369 43.7998
-2.93228 1.05253 43.7888
-3.1123 1.04213 43.8767
-3.17097 1.041 43.8652
-3.60657 1.04519 44.073
-3.72397 1.04306 44.0477
-3.84756 1.03392 44.1454
-4.17076 1.04092 44.375
2.39899 1.04788 42.4618
2.14994 1.05422 42.2338
2.04578 1.04399 42.344
1.98866 1.04224 42.3428
1.93154 1.0405 42.3415
1.87441 1.03876 42.3401
1.81727 1.03703 42.3386
1.76012 1.03531 42.337
1.59722 1.02339 42.4441
1.19444 1.02825 42.5857
1.13687 1.0266 42.5829
1.0793 1.02496 42.5799
0.964159 1.02169 42.5737
0.850975 1.02345 42.7036
0.788492 1.03372 42.7227
0.730704 1.03212 42.719
0.672919 1.03053 42.7153
0.560284 1.02393 42.765
0.447352 1.01735 42.8142
0.0361762 1.02373 42.9424
-0.0799956 1.02071 42.932
-0.250509 1.00932 43.0319
-0.308704 1.00784 43.0262
-0.366886 1.00636 43.0203
-0.897482 1.00393 43.2427
-0.955892 1.00253 43.2356
-1.01428 1.00114 43.2285
-1.13686 1.01073 43.2366
-1.25264 1.00099 43.3398
-1.31713 1.01203 43.355
-1.37562 1.01069 43.3472
-1.55085 0.999666 43.4418
-1.97401 1.00862 43.5463
-2.03261 1.00736 43.5371
-2.20997 0.996541 43.6289
-2.26861 0.995306 43.6192
-2.32722 0.994079 43.6094
-2.4467 0.984527 43.71
-2.93281 0.993427 43.7927
-3.1128 0.982864 43.8805
-3.17147 0.981742 43.8689
-3.23009 0.980627 43.8573
-3.3594 0.984126 43.9791
-3.48409 0.994864 43.9783
-3.60704 0.985541 44.0766
-3.72443 0.983431 44.0512
-4.16751 0.984346 44.3158
-4.22253 0.986984 44.2395
-4.27735 0.989609 44.1636
2.38774 0.998643 42.3556
2.33068 0.996848 42.355
2.15871 0.986117 42.3002
2.04524 0.987964 42.3504
1.98812 0.986206 42.3492
1.93099 0.984454 42.3479
1.87386 0.982709 42.3465
1.81672 0.980969 42.3449
1.75957 0.979236 42.3433
1.35858 0.983673 42.486
1.19387 0.971706 42.5917
1.13629 0.970048 42.5888
1.07872 0.968395 42.5858
0.672323 0.973684 42.721
0.556759 0.970507 42.7131
0.44676 0.960322 42.8197
0.388838 0.958753 42.8153
0.330922 0.957192 42.8109
0.267998 0.96761 42.8288
0.151785 0.969474 42.9578
0.0355729 0.966427 42.9477
-0.080601 0.963408 42.9373
-0.608479 0.960261 43.1634
-0.666815 0.958828 43.1569
-0.725134 0.957402 43.1503
-0.783437 0.955984 43.1436
-0.898073 0.946014 43.2476
-0.956483 0.944614 43.2405
-1.01487 0.943221 43.2333
-1.55143 0.941329 43.4464
-1.66852 0.938704 43.4295
-1.79176 0.948585 43.435
-1.90959 0.938798 43.5367
-1.97459 0.950044 43.5507
-2.03318 0.948785 43.5414
-2.21052 0.937803 43.6332
-2.26916 0.936572 43.6234
-2.32777 0.935348 43.6136
-2.69539 0.946221 43.7188
-2.81599 0.936608 43.8187
-2.87468 0.935455 43.8077
-2.93333 0.93431 43.7966
-3.11331 0.923587 43.8843
-3.17197 0.922471 43.8727
-3.7249 0.923787 44.0547
-3.84212 0.921722 44.0289
-4.16793 0.924229 44.3191
-4.22296 0.926967 44.2428
-4.27779 0.929692 44.1669
2.4034 0.932062 42.5319
1.98758 0.930149 42.3556
1.93045 0.928388 42.3543
1.87331 0.926633 42.3528
1.81616 0.924885 42.3512
1.75901 0.923143 42.3495
1.70185 0.921408 42.3478
1.59187 0.922467 42.4789
1.47714 0.919046 42.4745
1.35801 0.927291 42.4921
1.19329 0.915138 42.5977
1.13571 0.913473 42.5948
0.787307 0.920038 42.7342
0.729514 0.918427 42.7305
0.671725 0.916823 42.7267
0.556158 0.913635 42.7187
0.446167 0.903274 42.8253
0.388243 0.901701 42.8209
0.330326 0.900135 42.8164
-0.0812081 0.906084 42.9426
-0.251703 0.89433 43.0423
-0.309899 0.892846 43.0365
-0.368082 0.891368 43.0306
-0.495367 0.912662 43.0638
-0.609082 0.902503 43.1685
-0.667418 0.901069 43.1619
-0.725738 0.899642 43.1553
-0.784041 0.898222 43.1486
-0.898665 0.88808 43.2524
-1.2598 0.89703 43.3723
-1.31831 0.895681 43.3644
-1.3768 0.894338 43.3565
-1.55201 0.882978 43.4509
-1.6691 0.880355 43.434
-2.21108 0.879051 43.6374
-2.26972 0.877824 43.6277
-2.32832 0.876603 43.6178
-2.44777 0.866716 43.7182
-2.57186 0.876959 43.7208
-2.69593 0.887248 43.7229
-2.87521 0.876321 43.8116
-2.93386 0.875182 43.8005
-2.99247 0.87405 43.7893
-3.48508 0.875863 43.9856
-3.72536 0.864132 44.0583
-4.16835 0.864102 44.3224
-4.22339 0.866941 44.2462
2.38671 0.886644 42.3689
2.32964 0.884829 42.3682
2.15335 0.883017 42.3095
2.04416 0.875848 42.3633
1.98703 0.874071 42.3621
1.9299 0.872301 42.3607
1.87276 0.870537 42.3592
1.81561 0.86878 42.3575
1.75845 0.86703 42.3558
1.70128 0.865286 42.354
1.35742 0.870888 42.4982
1.19271 0.858551 42.6037
1.13513 0.856879 42.6007
1.07756 0.855213 42.5976
1.01541 0.865277 42.6169
0.957796 0.863631 42.6136
0.786711 0.86317 42.74
0.728917 0.861553 42.7362
0.671126 0.859944 42.7324
0.555554 0.856746 42.7244
0.150578 0.854838 42.9687
0.0343617 0.851776 42.9585
-0.0237325 0.850256 42.9533
-0.0818166 0.848743 42.9479
-0.252302 0.836813 43.0475
-0.310499 0.835326 43.0417
-0.609687 0.844729 43.1735
-0.668023 0.843293 43.167
-0.726343 0.841865 43.1603
-0.784647 0.840444 43.1535
-0.899258 0.83013 43.2573
-1.01606 0.827334 43.243
-1.14454 0.849049 43.2738
-1.2604 0.838833 43.377
-1.31891 0.837483 43.3691
-1.3774 0.836142 43.3612
-1.43587 0.834807 43.3531
-1.55259 0.824612 43.4555
-1.91712 0.834115 43.5687
-1.97574 0.832854 43.5595
-2.03433 0.8316 43.5501
-2.0929 0.830354 43.5407
-2.21163 0.820287 43.6417
-2.27027 0.819062 43.6319
-2.32887 0.817845 43.622
-2.44831 0.807791 43.7223
-2.87573 0.817175 43.8156
-2.93438 0.816041 43.8044
-2.99299 0.814914 43.7932
-3.11431 0.804998 43.892
-3.17297 0.803894 43.8803
-3.23876 0.815551 43.8918
-3.36817 0.818471 44.0138
-3.48557 0.816346 43.9893
-3.6028 0.814252 43.9644
-4.16877 0.803965 44.3258
-4.22381 0.806904 44.2495
-4.27865 0.809829 44.1735
-4.33328 0.812762 44.0976
2.38619 0.830612 42.3756
2.32912 0.828787 42.3749
2.26166 0.834312 42.2618
2.15281 0.827026 42.316
1.98649 0.817972 42.3685
1.8722 0.81442 42.3655
1.81505 0.812655 42.3639
1.47167 0.817879 42.5092
1.41426 0.816169 42.5068
1.35684 0.814466 42.5043
1.19213 0.801945 42.6096
1.13455 0.800266 42.6067
1.07697 0.798593 42.6036
0.670524 0.803046 42.7381
0.554949 0.799837 42.73
0.444974 0.789126 42.8365
0.387048 0.787544 42.832
0.324126 0.797828 42.85
0.266179 0.796265 42.8453
0.14759 0.801265 42.9161
0.0337537 0.794424 42.9639
-0.0243415 0.792901 42.9586
-0.0824266 0.791385 42.9532
-0.4966 0.797443 43.074
-0.610293 0.786939 43.1786
-0.668629 0.785502 43.172
-0.72695 0.784072 43.1653
-0.785253 0.78265 43.1585
-0.899852 0.772164 43.2622
-1.3195 0.779271 43.3739
-1.37799 0.77793 43.3659
-1.43646 0.776597 43.3577
-1.55317 0.766232 43.4601
-1.67025 0.763615 43.443
-1.79351 0.773394 43.4484
-1.91769 0.775496 43.5731
-1.97631 0.774238 43.5639
-2.03491 0.772987 43.5545
-2.09347 0.771744 43.5451
-2.21219 0.761509 43.646
-2.69703 0.769265 43.731
-2.87626 0.758016 43.8195
-2.9349 0.756888 43.8084
-2.99351 0.755767 43.7971
-3.11481 0.745686 43.8958
-3.48606 0.756817 43.993
-3.60328 0.754738 43.968
-3.72629 0.744789 44.0654
-3.85102 0.755639 44.0628
-4.22424 0.746858 44.2528
-4.27908 0.749883 44.1769
-4.33371 0.752915 44.1009
2.38566 0.774559 42.3822
1.98594 0.761852 42.3749
1.87164 0.758283 42.3719
1.81449 0.756508 42.3702
1.75732 0.754741 42.3684
1.70015 0.75298 42.3666
1.59017 0.753399 42.4975
1.47109 0.761452 42.5154
1.41367 0.759734 42.5129
1.35626 0.758024 42.5104
1.19155 0.745318 42.6156
0.785514 0.749377 42.7516
0.727716 0.74775 42.7478
0.669921 0.746129 42.7438
0.554342 0.742911 42.7357
0.444375 0.732024 42.842
0.0331442 0.737055 42.9693
-0.0249521 0.735528 42.964
-0.0830381 0.734009 42.9586
-0.253505 0.721727 43.058
-0.317105 0.732222 43.0748
-0.375323 0.730743 43.0688
-0.497218 0.739809 43.0792
-0.6109 0.729132 43.1836
-0.669237 0.727694 43.177
-0.727557 0.726263 43.1703
-1.08734 0.73432 43.2909
-1.14576 0.73295 43.2834
-1.26159 0.722392 43.3865
-1.3201 0.721044 43.3786
-1.37859 0.719704 43.3705
-1.43705 0.718371 43.3624
-1.55375 0.707837 43.4647
-1.97689 0.715608 43.5683
-2.03548 0.71436 43.5589
-2.09404 0.71312 43.5494
-2.21275 0.702717 43.6502
-2.27138 0.7015 43.6404
-2.32998 0.70029 43.6304
-2.45491 0.706384 43.6934
-2.58029 0.712572 43.7564
-2.69757 0.710255 43.735
-2.87678 0.698846 43.8235
-2.93543 0.697722 43.8123
-3.36916 0.699373 44.0213
-3.48655 0.697277 43.9967
-3.60377 0.695213 43.9716
-3.72675 0.685102 44.0689
-4.1696 0.683661 44.3324
-4.22466 0.686801 44.2561
-4.27951 0.689926 44.1802
-4.33415 0.693058 44.1042
2.38514 0.718484 42.3889
2.32806 0.716638 42.3882
2.26057 0.722466 42.275
2.14667 0.718818 42.273
1.98538 0.705711 42.3814
1.87108 0.702124 42.3783
1.81392 0.700341 42.3766
1.75676 0.698566 42.3748
1.41309 0.70328 42.5191
1.35567 0.701562 42.5165
1.19096 0.688673 42.6217
1.07579 0.685296 42.6154
1.01362 0.695233 42.6346
0.956002 0.693569 42.6312
0.784913 0.692452 42.7574
0.727112 0.69082 42.7535
0.669316 0.689194 42.7496
0.25991 0.693737 42.8789
0.146362 0.686691 42.9271
0.0325332 0.679669 42.9747
-0.0255641 0.678139 42.9694
-0.0836511 0.676617 42.9639
-0.254108 0.664158 43.0632
-0.611508 0.67131 43.1887
-0.669845 0.66987 43.1821
-0.728166 0.668438 43.1753
-0.786469 0.667014 43.1685
-0.901043 0.656186 43.2721
-1.02368 0.665507 43.2804
-1.08795 0.676247 43.2958
-1.14637 0.674878 43.2882
-1.26218 0.664149 43.3913
-1.32069 0.662802 43.3833
-1.37918 0.661463 43.3752
-1.43765 0.660131 43.3671
-1.80097 0.668816 43.4803
-1.91885 0.658217 43.582
-1.97747 0.656964 43.5727
-2.03606 0.655719 43.5633
-2.09462 0.654482 43.5538
-2.2133 0.643912 43.6545
-2.69812 0.651232 43.7391
-2.87731 0.639662 43.8275
-2.93595 0.638545 43.8162
-2.99455 0.637436 43.8049
-3.12295 0.639654 43.9268
-3.24748 0.650135 43.9266
-3.36965 0.639808 44.025
-3.48703 0.637726 44.0003
-3.98336 0.638805 44.1903
-4.17002 0.623494 44.3358
-4.22508 0.626735 44.2594
-4.27993 0.62996 44.1835
-4.33458 0.633192 44.1075
2.32753 0.660531 42.3948
2.26003 0.666511 42.2817
2.14612 0.662844 42.2796
1.98483 0.649549 42.3878
1.87052 0.645945 42.3847
1.58476 0.652023 42.5325
1.46992 0.648537 42.5278
1.4125 0.646805 42.5252
1.35508 0.645081 42.5226
1.19038 0.632008 42.6277
0.784309 0.635509 42.7632
0.668709 0.632241 42.7553
0.553123 0.629003 42.747
0.443173 0.617767 42.8533
0.380254 0.627916 42.8713
0.322296 0.626334 42.8667
0.259291 0.636514 42.8845
0.145746 0.629377 42.9325
0.0319208 0.622265 42.9801
-0.0261775 0.620732 42.9747
-0.0842654 0.619207 42.9693
-0.381996 0.627425 43.102
-0.498459 0.624492 43.0895
-0.612117 0.613471 43.1938
-0.670454 0.61203 43.1871
-0.728775 0.610597 43.1804
-0.787079 0.609172 43.1735
-0.90164 0.598173 43.277
-1.26278 0.605891 43.396
-1.32129 0.604545 43.388
-1.37978 0.603207 43.3799
-1.43824 0.601877 43.3717
-1.55491 0.591004 43.4739
-1.67823 0.600639 43.4796
-1.74303 0.611598 43.4938
-1.80157 0.610324 43.4849
-1.91942 0.599557 43.5864
-1.97804 0.598307 43.5771
-2.03663 0.597065 43.5676
-2.09519 0.595831 43.5581
-2.46157 0.605121 43.6646
-2.58139 0.594493 43.7646
-2.69866 0.592196 43.7432
-2.87783 0.580467 43.8314
-2.93647 0.579356 43.8202
-3.48752 0.578164 44.004
-3.60473 0.57613 43.9789
-3.73518 0.578435 44.0995
-3.85999 0.589222 44.0967
-3.98381 0.578871 44.1937
2.38949 0.602257 42.4588
1.98427 0.593366 42.3943
1.86996 0.589745 42.3911
1.81279 0.587946 42.3893
1.75562 0.586154 42.3874
1.69426 0.595742 42.4077
1.58845 0.584149 42.5162
1.46934 0.59205 42.534
1.41191 0.590311 42.5314
1.35449 0.588579 42.5287
1.29706 0.586855 42.526
0.783704 0.578547 42.769
0.6681 0.575269 42.7611
0.552511 0.572022 42.7527
0.145129 0.572046 42.938
0.0313069 0.564844 42.9855
-0.0267924 0.563308 42.9801
-0.0848812 0.56178 42.9746
-0.142959 0.56026 42.969
-0.260709 0.560842 43.0965
-0.382617 0.569745 43.1072
-0.499081 0.566809 43.0947
-0.612727 0.555616 43.1989
-0.671065 0.554174 43.1922
-0.729386 0.55274 43.1854
-1.08917 0.560056 43.3055
-1.14759 0.558687 43.2979
-1.32189 0.546273 43.3928
-1.38038 0.544936 43.3846
-1.43884 0.543607 43.3764
-1.55549 0.532566 43.4785
-1.92 0.540883 43.5908
-1.97862 0.539635 43.5815
-2.03721 0.538397 43.572
-2.09576 0.537166 43.5625
-2.21442 0.526262 43.6631
-2.33828 0.53622 43.6662
-2.46214 0.546228 43.6688
-2.58193 0.535435 43.7687
-2.64059 0.534287 43.758
-2.69921 0.533148 43.7473
-3.2485 0.531297 43.9342
-3.48801 0.51859 44.0077
-3.60521 0.516572 43.9825
-3.98426 0.518927 44.1972
-4.16725 0.507483 44.2801
-4.22592 0.506572 44.2661
-4.28078 0.509997 44.1901
-4.33544 0.51343 44.1141
3.72548 0.694989 55.3372
2.38355 0.550127 42.4091
2.32646 0.548253 42.4082
2.25892 0.554536 42.295
2.145 0.550832 42.2927
1.98371 0.537162 42.4008
1.86939 0.533525 42.3975
1.81222 0.531717 42.3957
1.75504 0.529917 42.3938
1.41132 0.533797 42.5376
1.35389 0.532058 42.5349
1.29646 0.530327 42.5321
1.1892 0.518619 42.6397
1.06944 0.526707 42.6558
1.01181 0.525017 42.6524
0.94955 0.534848 42.6714
0.783098 0.521567 42.7748
0.667489 0.518279 42.7668
0.316034 0.523592 42.9004
0.258047 0.522015 42.8956
0.14451 0.514697 42.9435
0.0306915 0.507405 42.991
-0.0274087 0.505867 42.9855
-0.0854984 0.504336 42.98
-0.499704 0.509109 43.0998
-0.613339 0.497745 43.204
-0.671676 0.496302 43.1973
-0.729997 0.494868 43.1904
-0.788301 0.493442 43.1835
-0.909586 0.498333 43.2507
-1.03135 0.503314 43.318
-1.08979 0.501937 43.3104
-1.1482 0.500569 43.3027
-1.32249 0.487986 43.3975
-1.38097 0.48665 43.3893
-1.74422 0.494567 43.5029
-1.80276 0.493298 43.4939
-1.92058 0.482195 43.5953
-1.97919 0.480951 43.5859
-2.03778 0.479715 43.5764
-2.09634 0.478488 43.5668
-2.21497 0.467418 43.6673
-2.58248 0.476364 43.7729
-2.64114 0.475221 43.7621
-2.69975 0.474087 43.7513
-2.87888 0.46204 43.8393
-2.94452 0.473416 43.8513
-3.00315 0.472329 43.8398
-3.13165 0.473967 43.9619
-3.24902 0.471861 43.938
-3.86093 0.469647 44.1038
-4.28121 0.450002 44.1934
2.38301 0.493965 42.4158
2.32062 0.496235 42.3588
2.25837 0.498516 42.3016
2.14444 0.494794 42.2993
1.98315 0.480937 42.4073
1.86882 0.477283 42.4039
1.58301 0.482545 42.5513
1.46816 0.479016 42.5464
1.41073 0.477263 42.5437
1.3533 0.475517 42.541
1.29586 0.47378 42.5382
1.1886 0.461896 42.6458
0.782489 0.464568 42.7807
0.666877 0.46127 42.7726
0.551281 0.458005 42.7641
0.436382 0.457875 42.8928
0.378414 0.456273 42.8882
0.315411 0.466319 42.906
0.257423 0.464739 42.9011
0.143889 0.457331 42.949
0.0300748 0.44995 42.9964
-0.383863 0.454335 43.1177
-0.500328 0.451393 43.105
-0.613951 0.439857 43.2091
-0.672289 0.438414 43.2023
-0.73061 0.436979 43.1955
-1.0904 0.443803 43.3153
-1.14882 0.442436 43.3076
-1.32309 0.429685 43.4022
-1.38157 0.42835 43.3941
-1.44003 0.427024 43.3858
-1.56291 0.432119 43.4511
-1.68625 0.437305 43.5164
-1.74481 0.43603 43.5074
-1.80335 0.434764 43.4984
-1.92116 0.423493 43.5997
-1.97977 0.422252 43.5903
-2.46327 0.428405 43.6772
-2.58303 0.41728 43.777
-2.64168 0.416143 43.7663
-2.7003 0.415014 43.7554
-3.24953 0.412413 43.9418
-3.48898 0.39941 44.0151
-3.5476 0.398413 44.0025
-3.61357 0.410015 44.0131
-3.74412 0.411744 44.1337
-3.80278 0.410789 44.1206
-3.8614 0.409844 44.1074
2.14387 0.438735 42.3059
1.97774 0.428937 42.3577
1.86825 0.421022 42.4104
1.81107 0.419198 42.4085
1.74973 0.428644 42.4288
1.69251 0.426842 42.4267
1.58242 0.426012 42.5576
1.46757 0.422469 42.5526
1.41013 0.420709 42.5499
1.3527 0.418957 42.5472
1.00598 0.422879 42.6868
0.948321 0.421192 42.6833
0.781879 0.40755 42.7865
0.666263 0.404243 42.7784
0.550664 0.400969 42.7698
0.256798 0.407445 42.9067
0.143267 0.399947 42.9545
0.0294566 0.392477 43.0018
-0.0286454 0.390933 42.9963
-0.0867367 0.389398 42.9907
-0.150112 0.399601 43.0076
-0.267965 0.399584 43.1352
-0.384487 0.396605 43.1229
-0.442728 0.395129 43.1166
-0.500953 0.393661 43.1102
-0.614564 0.381954 43.2142
-0.91759 0.398621 43.2246
-1.03258 0.38703 43.3278
-1.09102 0.385654 43.3202
-1.14943 0.384288 43.3124
-1.32369 0.371368 43.407
-1.38217 0.370035 43.3988
-1.74541 0.377479 43.512
-1.80394 0.376216 43.503
-1.98035 0.36354 43.5947
-2.03893 0.362311 43.5852
-2.09749 0.361091 43.5756
-2.22269 0.361925 43.6991
-2.34663 0.3718 43.7021
-2.46384 0.369474 43.6814
-2.58358 0.358184 43.7811
-2.64223 0.357052 43.7704
-2.70084 0.355929 43.7595
-3.01126 0.3662 43.8709
-3.13268 0.355032 43.9696
-3.25004 0.352953 43.9457
-3.36724 0.350911 43.9213
-3.48946 0.339804 44.0188
-3.80325 0.350967 44.1242
-3.86187 0.35003 44.1109
-4.18414 0.352574 44.3375
-4.23501 0.338978 44.2997
-4.28984 0.342684 44.2233
2.39279 0.372908 42.5422
2.31952 0.383988 42.3722
2.25726 0.386412 42.315
2.20029 0.38453 42.3138
2.14331 0.382655 42.3126
2.08632 0.380788 42.3112
1.97717 0.372752 42.3642
1.86768 0.364739 42.4168
1.8105 0.362908 42.4149
1.75331 0.361085 42.4129
1.46697 0.365902 42.5588
1.40954 0.364135 42.5561
1.3521 0.362377 42.5533
1.29466 0.360627 42.5504
1.18741 0.348392 42.6579
1.06762 0.356336 42.6738
1.00537 0.366028 42.6928
0.947704 0.364335 42.6892
0.781266 0.350514 42.7924
0.665647 0.347197 42.7842
0.37216 0.353316 42.9221
0.314162 0.351721 42.9173
0.256171 0.350134 42.9123
0.140215 0.346986 42.9021
0.0288371 0.334987 43.0073
-0.0292657 0.333441 43.0017
-0.0873578 0.331903 42.9961
-0.443354 0.337382 43.1218
-0.501579 0.335913 43.1154
-0.615179 0.324035 43.2193
-0.673517 0.32259 43.2125
-0.731838 0.321155 43.2056
-0.795838 0.331581 43.2213
-0.913043 0.326715 43.293
-1.0332 0.328865 43.3327
-1.09163 0.32749 43.325
-1.15004 0.326124 43.3173
-1.32429 0.313037 43.4117
-1.57039 0.331807 43.4238
-1.68745 0.320184 43.5255
-1.74601 0.318914 43.5166
-1.80454 0.317653 43.5075
-1.92231 0.306048 43.6086
-1.98093 0.304814 43.5992
-2.03951 0.303589 43.5896
-2.09806 0.302373 43.5799
-2.46441 0.31053 43.6856
-2.58413 0.299076 43.7853
-2.64278 0.297949 43.7745
-2.70139 0.296831 43.7636
-2.75996 0.295723 43.7526
-2.88745 0.296663 43.8746
-2.94611 0.295586 43.8631
-3.01179 0.306879 43.8749
-3.1332 0.295547 43.9735
-3.25055 0.293483 43.9495
-3.36774 0.291455 43.9251
-3.80372 0.291133 44.1277
-3.86234 0.290206 44.1144
2.31897 0.327833 42.3789
2.2567 0.330328 42.3217
2.19972 0.328437 42.3205
2.14274 0.326553 42.3192
2.08575 0.324678 42.3178
1.97659 0.316545 42.3707
1.57691 0.317312 42.5136
1.46637 0.309315 42.5651
1.40894 0.307542 42.5623
1.3515 0.305777 42.5595
1.29405 0.304021 42.5566
0.780653 0.293459 42.7982
0.66503 0.290133 42.79
0.607225 0.288484 42.7857
0.549425 0.286842 42.7813
0.371534 0.295994 42.9278
0.313535 0.294395 42.9229
0.255543 0.292805 42.9179
0.139584 0.289651 42.9076
-0.38574 0.281097 43.1334
-0.443981 0.279618 43.127
-0.502207 0.278148 43.1206
-0.674132 0.264655 43.2176
-0.732453 0.263219 43.2106
-1.09225 0.26931 43.3299
-1.15066 0.267945 43.3221
-1.32489 0.254692 43.4165
-1.38337 0.253362 43.4082
-1.44793 0.264015 43.4227
-1.57092 0.268778 43.4882
-1.68804 0.261602 43.5301
-1.7466 0.260335 43.5211
-1.80513 0.259077 43.512
-2.34777 0.253881 43.7106
-2.46497 0.251573 43.6899
-2.64332 0.238833 43.7786
-2.70193 0.237721 43.7676
-3.13371 0.23605 43.9774
-3.25106 0.234001 43.9533
-3.36825 0.231988 43.9289
-3.49043 0.220558 44.0261
-3.55644 0.232053 44.0368
-3.62246 0.243564 44.0474
-3.80419 0.231289 44.1313
-3.8628 0.230371 44.118
-4.18502 0.232131 44.3443
-4.24372 0.231278 44.3301
2.38085 0.2691 42.4428
2.19916 0.272323 42.3271
2.14217 0.270431 42.3258
2.08517 0.268547 42.3244
1.97602 0.260317 42.3773
1.86653 0.252113 42.4297
1.8052 0.261415 42.45
1.74797 0.259583 42.4479
1.69074 0.257759 42.4457
1.57632 0.2608 42.5199
1.46578 0.252708 42.5713
1.40833 0.250929 42.5685
1.35089 0.249158 42.5657
1.0618 0.253981 42.7083
1.00413 0.252269 42.7048
0.946464 0.250566 42.7011
0.780037 0.236385 42.8041
0.664411 0.233051 42.7958
0.254913 0.235458 42.9235
0.138952 0.232299 42.9131
0.0275941 0.219956 43.0182
-0.0305103 0.218404 43.0126
-0.0886039 0.216862 43.0069
-0.157317 0.238568 43.0463
-0.269842 0.226305 43.1512
-0.386367 0.223318 43.1387
-0.444609 0.221838 43.1323
-0.502835 0.220367 43.1257
-0.919478 0.224589 43.2395
-1.03443 0.212489 43.3425
-1.09286 0.211116 43.3348
-1.15128 0.209752 43.327
-1.32549 0.196331 43.4213
-1.68864 0.203006 43.5347
-1.7472 0.201742 43.5257
-1.80573 0.200487 43.5166
-1.98208 0.187322 43.608
-2.04066 0.186104 43.5984
-2.10571 0.196988 43.6117
-2.23101 0.197236 43.7353
-2.34834 0.194901 43.7149
-2.46554 0.192604 43.6941
-2.95422 0.189251 43.8944
-3.01286 0.1882 43.8828
-3.25157 0.174507 43.9571
-3.31018 0.173504 43.9449
-3.36875 0.17251 43.9326
-3.80466 0.171435 44.1349
-3.86327 0.170526 44.1215
-4.18545 0.171895 44.3477
-4.24415 0.171052 44.3335
-4.29903 0.175064 44.257
-4.35369 0.179084 44.1806
2.3803 0.21283 42.4496
2.31786 0.215457 42.3924
2.25557 0.218096 42.3351
2.19859 0.216188 42.3338
2.1416 0.214287 42.3324
2.0846 0.212396 42.331
1.97544 0.204069 42.3838
1.86595 0.195769 42.4362
1.57138 0.208858 42.4696
1.46518 0.196082 42.5776
1.40773 0.194296 42.5748
1.35029 0.192519 42.5719
1.29284 0.190751 42.5689
1.18107 0.189264 42.6987
1.06119 0.197078 42.7144
1.00351 0.195361 42.7108
0.945842 0.193653 42.7071
0.888173 0.191953 42.7033
0.77942 0.179294 42.81
0.370278 0.181295 42.9391
0.312276 0.17969 42.9341
0.254282 0.178094 42.9291
0.138319 0.174929 42.9187
0.0269707 0.162414 43.0236
-0.386996 0.165523 43.1439
-0.445238 0.164042 43.1375
-0.503464 0.16257 43.131
-0.675366 0.148736 43.2278
-0.739372 0.159035 43.2435
-0.803426 0.169353 43.2592
-0.920109 0.166547 43.2445
-1.03505 0.154278 43.3475
-1.09348 0.152906 43.3397
-1.15189 0.151543 43.3319
-1.57214 0.151734 43.4975
-1.68924 0.144396 43.5393
-1.74779 0.143135 43.5303
-1.80632 0.141884 43.5211
-1.98266 0.128556 43.6125
-2.34891 0.135909 43.7192
-2.40752 0.134761 43.7088
-2.46611 0.133622 43.6983
-2.64441 0.120565 43.7868
-2.70989 0.131668 43.7989
-2.76849 0.130581 43.7878
-2.89607 0.130941 43.9099
-2.95475 0.129888 43.8984
-3.0134 0.128843 43.8868
-3.56483 0.125088 44.0676
-3.62345 0.124149 44.0547
-3.80513 0.111571 44.1384
-3.86373 0.110671 44.1251
-3.92229 0.109781 44.1116
-4.18588 0.111649 44.3511
-4.24458 0.110816 44.3368
2.3173 0.159237 42.3991
2.255 0.161948 42.3418
2.19802 0.160031 42.3405
2.14102 0.158123 42.3391
2.08402 0.156223 42.3376
1.97486 0.1478 42.3904
1.57077 0.152387 42.476
1.46457 0.139436 42.5838
1.40713 0.137644 42.581
1.34968 0.135861 42.5781
1.29223 0.134086 42.575
0.945218 0.136721 42.7131
0.887547 0.135017 42.7093
0.778801 0.122183 42.8158
0.663168 0.118832 42.8074
0.600492 0.128547 42.8255
0.542653 0.126899 42.821
0.369648 0.12392 42.9448
0.311645 0.122312 42.9398
0.253649 0.120713 42.9347
-0.158596 0.123309 43.0571
-0.271099 0.110702 43.1618
-0.387626 0.107711 43.1492
-0.445868 0.106229 43.1427
-0.504095 0.104757 43.1362
-1.03567 0.0960521 43.3524
-1.0941 0.0946812 43.3446
-1.15251 0.0933197 43.3368
-1.32669 0.0795665 43.4308
-1.45587 0.100647 43.4598
-1.57284 0.0980646 43.4425
-1.68984 0.0857725 43.5439
-1.74839 0.0845145 43.5349
-1.80692 0.0832661 43.5257
-2.23133 0.0841306 43.6838
-2.34948 0.0769044 43.7235
-2.40809 0.0757611 43.7131
-2.46667 0.0746274 43.7025
-3.01393 0.0694748 43.8907
-3.25258 0.0554863 43.9648
-3.31119 0.0544986 43.9525
-3.37702 0.0658385 43.9634
-3.50667 0.066296 44.0841
-3.56533 0.0653558 44.0713
-3.62394 0.0644253 44.0584
-3.8056 0.0516957 44.142
-4.18631 0.051393 44.3545
-4.24501 0.0505714 44.3402
-4.29989 0.0547858 44.2637
-4.35456 0.0590079 44.1873
2.38243 0.112739 42.6216
2.31674 0.102996 42.4059
2.25443 0.105779 42.3485
2.19744 0.103854 42.3472
2.14045 0.101937 42.3457
2.08344 0.100029 42.3442
1.97428 0.0915104 42.3969
1.86478 0.0830193 42.4491
1.80343 0.0921927 42.4694
1.74619 0.0903392 42.4672
1.68472 0.0995476 42.4872
1.57451 0.0911443 42.5389
1.46397 0.0827696 42.5901
1.40652 0.0809717 42.5872
1.05994 0.0832148 42.7265
1.00227 0.081488 42.7228
0.944592 0.0797702 42.7191
0.886919 0.0780615 42.7152
0.778181 0.0650544 42.8217
0.369016 0.0665264 42.9504
0.311012 0.0649153 42.9454
0.253015 0.0633135 42.9403
0.137048 0.0601378 42.9298
-0.0376556 0.0572211 43.0516
-0.0957844 0.0556786 43.0458
-0.159237 0.0656536 43.0625
-0.271729 0.0528765 43.1672
-0.388257 0.0498831 43.1545
-0.446499 0.0484006 43.148
-0.804691 0.0532218 43.2693
-0.921372 0.0504172 43.2546
-1.03629 0.0378111 43.3573
-1.09472 0.0364414 43.3495
-1.15313 0.0350813 43.3416
-1.57346 0.0395934 43.4472
-1.69043 0.0271348 43.5486
-1.74899 0.0258799 43.5394
-1.80752 0.0246349 43.5302
-1.99027 0.0229506 43.6445
-2.04888 0.0217489 43.6347
-2.11398 0.0325332 43.6479
-2.2311 0.0301878 43.6279
-2.35005 0.0178868 43.7278
-2.40866 0.0167485 43.7173
-2.46724 0.0156202 43.7068
-2.7765 0.0243398 43.8191
-2.89715 0.0121649 43.918
-3.01446 0.0100945 43.8947
-3.13162 0.00806352 43.871
-3.25309 -0.00404087 43.9686
-3.62443 0.00469099 44.0621
-3.80606 -0.00818943 44.1456
-3.86465 -0.00907015 44.1321
-3.9232 -0.00994102 44.1186
-4.19034 -0.0140193 44.4204
-4.24544 -0.00968317 44.3436
-4.30032 -0.00536766 44.2671
2.37865 0.0438907 42.47
2.31618 0.0467333 42.4127
2.25386 0.0495886 42.3553
2.19687 0.0476551 42.3539
2.13987 0.0457304 42.3524
2.08286 0.0438145 42.3508
1.97369 0.0352001 42.4035
1.5739 0.0345523 42.5452
1.46336 0.026084 42.5964
1.40591 0.0242801 42.5935
1.34846 0.0224853 42.5905
1.291 0.0206996 42.5874
1.17517 0.0255403 42.6865
1.05932 0.0262549 42.7326
1.00164 0.0245232 42.7289
0.943964 0.0228008 42.7251
0.886289 0.0210875 42.7212
0.777559 0.00790726 42.8276
0.368383 0.00911533 42.9561
0.310378 0.00750137 42.9511
0.25238 0.00589688 42.9459
0.136411 0.00271637 42.9353
-0.272361 -0.00496596 43.1725
-0.388888 -0.0079611 43.1598
-0.447131 -0.00944416 43.1532
-0.505358 -0.0109175 43.1466
-0.682896 -0.0136426 43.2659
-0.746956 -0.00345108 43.2817
-0.805324 -0.00486736 43.2744
-0.922005 -0.00767066 43.2596
-1.0369 -0.020445 43.3623
-1.4571 -0.0163203 43.4693
-1.57407 -0.018892 43.4519
-1.69103 -0.0315169 43.5532
-1.74958 -0.0327685 43.544
-1.80811 -0.0340101 43.5348
-2.23169 -0.0286785 43.6323
-2.35062 -0.0411437 43.7321
-2.40923 -0.0422766 43.7216
-2.4678 -0.0433996 43.711
-2.65291 -0.0448474 43.8224
-2.71843 -0.0338391 43.8344
