2.62257 4.30249 42.2705
2.56011 4.3001 42.2153
1.75488 4.25446 42.013
1.69791 4.2534 42.013
1.58394 4.25127 42.0127
1.52695 4.2502 42.0123
1.46994 4.24913 42.0119
1.41293 4.24805 42.0113
1.35591 4.24697 42.0107
1.29888 4.24589 42.0099
1.24184 4.2448 42.009
1.1848 4.24371 42.008
1.12776 4.24262 42.0069
1.01365 4.24042 42.0044
0.956596 4.23932 42.0029
0.78251 4.23472 41.9422
0.7227 4.23233 41.8846
0.60887 4.2301 41.8805
-0.120863 4.1878 41.8002
-0.177667 4.18663 41.7966
5.43804 4.36271 42.8513
5.37192 4.36037 42.7995
5.30592 4.35803 42.7475
5.19256 4.35639 42.7617
5.13582 4.35556 42.7685
5.07903 4.35473 42.7753
4.96534 4.35306 42.7884
4.89974 4.35071 42.7359
4.83426 4.34836 42.6832
4.7796 4.33397 42.6656
4.72277 4.33311 42.6716
4.66591 4.33225 42.6775
4.60076 4.32988 42.6246
4.42443 4.31228 42.5595
4.36757 4.31139 42.5648
4.31068 4.31049 42.57
4.25376 4.3096 42.575
4.1968 4.30869 42.5799
4.13225 4.30636 42.5267
3.95399 4.30221 42.4823
3.89703 4.30129 42.4866
3.84004 4.30037 42.4908
3.78302 4.29944 42.4949
3.0277 4.25574 42.3188
2.9647 4.25342 42.2641
2.90769 4.25243 42.2664
2.85065 4.25143 42.2686
2.79359 4.25044 42.2707
2.73651 4.24943 42.2727
2.62229 4.24742 42.2764
2.55982 4.24509 42.2212
2.38343 4.24073 42.1686
2.32638 4.23971 42.1698
2.26932 4.23868 42.1709
2.21224 4.23765 42.1719
2.15514 4.23661 42.1727
1.35553 4.19196 42.0159
1.2985 4.19086 42.0151
1.24146 4.18976 42.0142
1.18441 4.18866 42.0132
1.12737 4.18756 42.012
1.01326 4.18533 42.0094
0.956195 4.18422 42.008
0.782095 4.17966 41.9471
0.722276 4.17735 41.8895
0.608441 4.17509 41.8854
0.551523 4.17396 41.8832
0.437691 4.17168 41.8784
0.385486 4.15689 41.8541
0.266957 4.16824 41.8704
0.210051 4.16709 41.8675
-0.0644951 4.13391 41.8082
-0.121308 4.13273 41.8047
-0.17974 4.13045 41.7462
-0.35596 4.15772 41.9437
5.68107 4.34084 42.996
5.62759 4.31291 42.9551
5.55145 4.30916 42.8439
5.4948 4.30833 42.8515
5.43811 4.3075 42.8589
5.37198 4.30522 42.8071
5.30597 4.30293 42.7551
5.19259 4.30124 42.7691
5.13583 4.30039 42.776
5.07904 4.29954 42.7827
4.42435 4.25723 42.5665
4.36748 4.25632 42.5717
4.31059 4.2554 42.5769
4.25366 4.25448 42.5819
4.19669 4.25356 42.5868
4.13213 4.25129 42.5335
4.06768 4.24902 42.48
4.01078 4.24809 42.4846
3.95384 4.24715 42.489
3.89688 4.24621 42.4932
3.83988 4.24527 42.4974
3.78286 4.24432 42.5015
3.7258 4.24337 42.5054
3.66183 4.2411 42.4514
3.59798 4.23882 42.3973
3.48399 4.2369 42.4044
2.79332 4.19539 42.2767
2.73623 4.19437 42.2787
2.62201 4.19232 42.2823
2.55952 4.19006 42.2271
2.49718 4.1878 42.1717
2.38312 4.18573 42.1744
2.32607 4.18469 42.1756
2.269 4.18365 42.1766
2.21191 4.1826 42.1776
2.15481 4.18155 42.1784
2.0977 4.1805 42.1791
1.98343 4.17838 42.1802
1.93014 4.16373 42.1581
1.7545 4.15931 42.1021
1.6972 4.14352 42.0238
1.64021 4.14243 42.0237
1.58321 4.14134 42.0234
1.52621 4.14024 42.023
1.4692 4.13914 42.0225
1.41217 4.13804 42.0219
1.35515 4.13693 42.0212
1.29811 4.13582 42.0203
1.24107 4.13471 42.0194
1.18402 4.13359 42.0184
1.12697 4.13247 42.0172
1.01285 4.13023 42.0145
0.952654 4.12798 41.9573
0.781676 4.12459 41.9521
0.152696 4.11083 41.8693
-0.121757 4.07765 41.8093
-0.180197 4.07543 41.7507
5.60815 4.25483 42.844
5.55153 4.25398 42.8517
5.49488 4.25312 42.8592
5.43817 4.25226 42.8666
5.37203 4.25004 42.8147
5.30601 4.24781 42.7627
5.19261 4.24607 42.7767
5.13585 4.2452 42.7835
5.07905 4.24432 42.7901
4.8997 4.24032 42.7505
4.83419 4.23809 42.6977
4.19658 4.1984 42.5936
4.132 4.19619 42.5403
4.06755 4.19398 42.4868
4.01064 4.19303 42.4913
3.95369 4.19207 42.4957
3.89672 4.19111 42.4999
3.83972 4.19015 42.5041
3.78269 4.18918 42.5081
3.72563 4.18821 42.512
3.66164 4.186 42.458
3.59778 4.18379 42.4039
3.48378 4.18183 42.4108
3.42674 4.18084 42.4141
3.3727 4.16636 42.3944
3.31564 4.16537 42.3975
3.25856 4.16436 42.4004
3.19523 4.16214 42.3458
3.0212 4.14445 42.2739
2.96419 4.14342 42.2763
2.90717 4.14239 42.2786
2.85012 4.14136 42.2807
2.79305 4.14033 42.2828
2.73596 4.13929 42.2847
2.62172 4.13721 42.2882
2.55923 4.13501 42.233
2.49687 4.13282 42.1776
2.38281 4.13072 42.1802
2.32575 4.12966 42.1814
1.52583 4.08523 42.0284
1.46882 4.08412 42.0278
1.41179 4.083 42.0272
1.35476 4.08188 42.0264
1.29772 4.08076 42.0256
1.24068 4.07963 42.0246
1.18363 4.0785 42.0235
1.12657 4.07737 42.0223
1.01245 4.0751 42.0196
0.952241 4.07293 41.9623
0.781255 4.0695 41.9571
0.721419 4.06732 41.8995
0.607573 4.06502 41.8952
0.55065 4.06387 41.893
0.436807 4.06155 41.8881
0.379888 4.06039 41.8855
0.266057 4.05805 41.88
5.49495 4.19789 42.8669
5.43824 4.197 42.8743
5.37208 4.19484 42.8224
5.30604 4.19267 42.7703
5.24936 4.19178 42.7773
5.19263 4.19088 42.7842
5.13586 4.18998 42.791
5.07905 4.18908 42.7976
4.89097 4.18383 42.6989
4.83416 4.18292 42.705
4.77949 4.16856 42.6873
4.72264 4.16763 42.6932
4.66575 4.1667 42.699
4.60057 4.16452 42.646
4.53782 4.14896 42.5698
4.42417 4.14706 42.5805
4.3673 4.14611 42.5857
4.31039 4.14515 42.5907
4.25344 4.14418 42.5957
4.19647 4.14322 42.6005
4.13187 4.14107 42.5471
4.06741 4.13892 42.4936
4.01049 4.13795 42.4981
3.95354 4.13697 42.5024
3.89656 4.13599 42.5066
3.83956 4.13501 42.5107
3.78252 4.13402 42.5147
3.72545 4.13303 42.5186
3.66836 4.13204 42.5223
3.02095 4.08943 42.28
2.96393 4.08839 42.2824
2.9069 4.08735 42.2847
2.84985 4.0863 42.2868
2.79277 4.08525 42.2888
2.73568 4.08419 42.2907
2.62143 4.08207 42.2942
2.55893 4.07994 42.2389
2.49657 4.07782 42.1835
2.38249 4.07568 42.1861
2.32542 4.07461 42.1872
2.26834 4.07353 42.1882
2.21125 4.07245 42.189
2.15414 4.07137 42.1898
2.09702 4.07028 42.1905
1.98274 4.0681 42.1914
1.92558 4.06701 42.1917
1.12617 4.02225 42.0275
1.01204 4.01996 42.0247
0.951825 4.01786 41.9674
0.78083 4.01439 41.9622
0.720986 4.01229 41.9045
0.607134 4.00996 41.9002
0.550209 4.0088 41.8979
0.43636 4.00646 41.893
0.379439 4.00528 41.8903
0.265603 4.00293 41.8847
0.20869 4.00175 41.8818
-0.0189159 3.997 41.8689
-0.122663 3.96743 41.8184
-0.181119 3.96536 41.7599
-0.357349 3.99163 41.9572
5.69457 4.14897 43.0306
5.61811 4.14564 42.9191
5.5517 4.14353 42.8672
5.49502 4.14263 42.8747
5.4383 4.14172 42.882
5.37213 4.13961 42.8301
5.30608 4.1375 42.778
5.24939 4.13658 42.7849
5.19265 4.13566 42.7918
5.13587 4.13474 42.7985
5.07906 4.13381 42.8051
4.53774 4.09389 42.5769
4.48093 4.09292 42.5823
4.42408 4.09194 42.5875
4.3672 4.09097 42.5927
4.31028 4.08998 42.5977
4.25333 4.089 42.6026
4.19635 4.08801 42.6074
4.13174 4.08593 42.554
4.06727 4.08384 42.5004
4.01034 4.08285 42.5048
3.95339 4.08185 42.5091
3.8964 4.08085 42.5133
3.83939 4.07984 42.5174
3.78234 4.07884 42.5213
3.72527 4.07783 42.5252
3.66126 4.07574 42.4711
3.59738 4.07365 42.4169
3.48336 4.07161 42.4238
3.4263 4.07059 42.427
2.73539 4.02907 42.2967
2.62114 4.02692 42.3001
2.55863 4.02485 42.2448
2.49625 4.02279 42.1894
2.38217 4.02062 42.1919
2.3251 4.01953 42.193
2.26801 4.01844 42.1939
2.21092 4.01735 42.1948
2.1538 4.01625 42.1955
2.09668 4.01515 42.1962
1.98238 4.01294 42.1971
1.92076 4.01087 42.1409
1.74914 3.99314 42.0624
1.69212 3.99201 42.0623
1.63509 3.99089 42.062
1.58209 3.97629 42.0396
1.52508 3.97515 42.0391
1.46805 3.97401 42.0385
1.41102 3.97287 42.0378
1.35398 3.97172 42.037
1.29694 3.97058 42.0361
1.23989 3.96943 42.0351
1.18283 3.96827 42.0339
1.12239 3.96624 41.9769
1.01163 3.9648 42.0299
0.951407 3.96276 41.9726
0.780403 3.95927 41.9672
0.72055 3.95723 41.9095
0.606693 3.95488 41.9051
-0.123121 3.91229 41.823
-0.181584 3.91029 41.7644
5.60841 4.0892 42.8675
5.55177 4.08827 42.875
5.49509 4.08734 42.8825
5.43836 4.0864 42.8898
5.37218 4.08435 42.8378
5.30611 4.0823 42.7856
5.24941 4.08136 42.7925
5.19267 4.08042 42.7993
5.13588 4.07947 42.806
5.0701 4.07742 42.7536
4.8909 4.07346 42.7136
4.83408 4.0725 42.7197
4.13161 4.03076 42.5608
4.06712 4.02873 42.5073
4.01019 4.02772 42.5116
3.95323 4.0267 42.5159
3.89624 4.02568 42.5201
3.83922 4.02466 42.5241
3.72509 4.0226 42.5318
3.66107 4.02057 42.4777
3.59718 4.01855 42.4235
3.48314 4.01647 42.4303
3.42608 4.01543 42.4335
3.369 4.01438 42.4366
3.31189 4.01334 42.4395
3.25786 3.99888 42.4194
3.1945 3.99685 42.3647
3.02043 3.97934 42.2924
2.96341 3.97826 42.2947
2.90636 3.97718 42.2969
2.8493 3.9761 42.299
2.79221 3.97501 42.3009
2.73511 3.97393 42.3028
2.62084 3.97174 42.3061
2.55832 3.96974 42.2508
2.49594 3.96774 42.1953
2.38184 3.96554 42.1978
2.32477 3.96444 42.1988
2.26768 3.96333 42.1998
2.21058 3.96222 42.2006
2.15346 3.96111 42.2013
1.35359 3.91662 42.0423
1.29654 3.91546 42.0414
1.23949 3.9143 42.0403
1.18243 3.91313 42.0392
1.12197 3.91116 41.9821
0.950985 3.90765 41.9777
0.779972 3.90412 41.9722
0.720111 3.90215 41.9145
0.606248 3.89979 41.9101
0.549317 3.8986 41.9078
0.435458 3.89622 41.9027
0.378531 3.89503 41.9001
0.321607 3.89383 41.8973
0.264686 3.89264 41.8944
0.207768 3.89144 41.8914
5.49515 4.03202 42.8903
5.43842 4.03106 42.8975
5.37222 4.02907 42.8455
5.30614 4.02709 42.7933
5.24943 4.02612 42.8002
5.19268 4.02515 42.8069
5.13589 4.02418 42.8136
5.0701 4.02219 42.7612
4.89087 4.01824 42.721
4.83403 4.01726 42.727
4.77936 4.00294 42.7092
4.72248 4.00194 42.715
4.66557 4.00094 42.7206
4.60036 3.99894 42.6675
4.53525 3.99699 42.6146
4.48075 3.98266 42.5965
4.42389 3.98164 42.6016
4.36699 3.98061 42.6067
4.31006 3.97959 42.6117
4.1961 3.97753 42.6212
4.13147 3.97557 42.5677
4.06697 3.97361 42.5141
4.01003 3.97257 42.5185
3.95307 3.97153 42.5227
3.89607 3.97049 42.5268
3.83904 3.96944 42.5308
3.7249 3.96735 42.5385
3.66087 3.96538 42.4843
2.96314 3.92317 42.3009
2.90609 3.92207 42.3031
2.84902 3.92097 42.3051
2.79193 3.91987 42.307
2.73482 3.91876 42.3088
2.62054 3.91654 42.3121
2.55801 3.91461 42.2567
2.49562 3.91268 42.2013
2.38151 3.91044 42.2036
2.32444 3.90932 42.2047
2.26734 3.9082 42.2056
2.21024 3.90708 42.2064
2.15312 3.90595 42.207
2.09598 3.90482 42.2076
1.98167 3.90255 42.2084
1.92003 3.90062 42.1521
0.95056 3.85252 41.9828
0.890466 3.85063 41.9254
0.776602 3.84825 41.9216
0.719669 3.84706 41.9195
0.662735 3.84587 41.9174
0.6058 3.84467 41.9151
0.548867 3.84348 41.9127
0.491934 3.84228 41.9102
0.435003 3.84108 41.9076
0.378073 3.83988 41.9049
0.321147 3.83867 41.9021
0.264223 3.83746 41.8992
0.207303 3.83625 41.8962
-0.124044 3.80198 41.8322
-0.182523 3.80012 41.7736
5.68494 3.98154 42.9946
5.60857 3.97865 42.8833
5.55192 3.97767 42.8907
5.49521 3.97669 42.8981
5.43847 3.9757 42.9053
5.37226 3.97377 42.8532
5.30617 3.97184 42.801
5.24945 3.97085 42.8078
5.19269 3.96986 42.8145
5.13589 3.96886 42.8211
5.07008 3.96693 42.7687
4.53749 3.92853 42.5983
4.48066 3.92749 42.6036
4.42379 3.92645 42.6087
4.36688 3.9254 42.6138
4.30995 3.92436 42.6187
4.19597 3.92225 42.6281
4.13133 3.92035 42.5746
4.06682 3.91845 42.521
4.00988 3.9174 42.5253
3.9529 3.91634 42.5295
3.8959 3.91528 42.5336
3.83887 3.91421 42.5375
3.72471 3.91207 42.5451
3.66067 3.91017 42.491
3.59676 3.90827 42.4367
3.53974 3.9072 42.44
3.4827 3.90612 42.4433
3.42563 3.90504 42.4464
3.36853 3.90396 42.4495
3.31141 3.90287 42.4524
3.25427 3.90179 42.4552
2.5577 3.85946 42.2627
2.4953 3.85759 42.2072
2.38118 3.85532 42.2095
2.3241 3.85419 42.2105
2.267 3.85305 42.2114
2.20989 3.85191 42.2122
2.15277 3.85077 42.2128
2.09563 3.84962 42.2133
1.98131 3.84732 42.2141
1.91965 3.84546 42.1578
1.74404 3.84129 42.1013
1.68698 3.84013 42.101
1.63393 3.82561 42.0785
1.57688 3.82444 42.078
1.51982 3.82327 42.0775
1.46275 3.8221 42.0768
1.40568 3.82092 42.076
1.3486 3.81974 42.0751
1.29574 3.80517 42.052
1.23868 3.80398 42.0509
1.18161 3.80279 42.0497
1.12114 3.80096 41.9926
0.950132 3.79738 41.988
0.890029 3.79555 41.9305
0.77616 3.79315 41.9267
0.719224 3.79195 41.9246
0.662287 3.79075 41.9224
0.60535 3.78954 41.9201
0.548413 3.78834 41.9177
0.491478 3.78713 41.9152
0.434544 3.78592 41.9125
0.377612 3.7847 41.9098
0.320683 3.78349 41.907
0.263757 3.78227 41.904
0.206835 3.78106 41.901
0.149917 3.77984 41.8978
5.60865 3.92333 42.8912
5.55198 3.92233 42.8986
5.49527 3.92132 42.9059
5.43852 3.92031 42.9131
5.3723 3.91844 42.861
5.30619 3.91657 42.8087
5.24946 3.91555 42.8155
5.1927 3.91454 42.8222
5.13589 3.91352 42.8287
5.07007 3.91165 42.7763
4.89078 3.90773 42.7359
4.83393 3.9067 42.7418
4.77704 3.90566 42.7477
4.12358 3.86435 42.5235
4.06666 3.86328 42.5279
4.00972 3.8622 42.5322
3.95273 3.86112 42.5363
3.89572 3.86004 42.5404
3.83869 3.85895 42.5443
3.72452 3.85678 42.5518
3.66047 3.85494 42.4976
3.59654 3.85311 42.4433
3.53952 3.85201 42.4466
3.48247 3.85091 42.4498
3.42539 3.84982 42.453
3.36829 3.84871 42.456
3.31117 3.84761 42.4588
3.25402 3.8465 42.4616
3.19059 3.84467 42.4068
3.01639 3.82733 42.3338
2.96259 3.81291 42.3133
2.90553 3.81178 42.3154
2.84845 3.81065 42.3174
2.79135 3.80951 42.3193
2.72862 3.80771 42.2642
2.55738 3.80428 42.2687
2.49497 3.80248 42.2132
2.38085 3.80019 42.2154
2.32376 3.79903 42.2164
2.26666 3.79788 42.2172
2.20954 3.79672 42.218
2.15241 3.79557 42.2186
2.09527 3.79441 42.2191
1.98095 3.79208 42.2198
1.12072 3.74583 41.9978
0.949701 3.74221 41.9931
0.88959 3.74046 41.9356
0.775715 3.73804 41.9317
0.718776 3.73682 41.9296
0.661836 3.73561 41.9274
0.604896 3.73439 41.9251
0.547957 3.73318 41.9227
0.491019 3.73196 41.9201
0.434083 3.73074 41.9175
0.377149 3.72952 41.9147
0.320217 3.72829 41.9118
0.263289 3.72707 41.9089
0.206364 3.72584 41.9058
5.55205 3.86696 42.9065
5.49533 3.86593 42.9138
5.43857 3.8649 42.9209
5.37233 3.86308 42.8687
5.30621 3.86127 42.8164
5.24948 3.86023 42.8232
5.1927 3.85919 42.8298
5.13588 3.85815 42.8364
5.07005 3.85634 42.7838
4.89074 3.85243 42.7433
4.83388 3.85138 42.7493
4.7792 3.8371 42.7312
4.7223 3.83603 42.7369
4.66536 3.83496 42.7425
4.60011 3.83315 42.6892
4.53497 3.83138 42.6362
4.47808 3.8303 42.6414
4.42116 3.82923 42.6464
4.36666 3.81491 42.6279
4.30971 3.81382 42.6328
4.19571 3.81163 42.6421
4.13104 3.80986 42.5885
4.06651 3.80808 42.5348
4.00955 3.80698 42.539
3.95256 3.80588 42.5432
3.89555 3.80478 42.5472
3.8385 3.80368 42.5511
3.66026 3.79969 42.5043
3.59632 3.79791 42.4499
3.53929 3.7968 42.4532
3.48224 3.79568 42.4564
2.72832 3.75256 42.2703
2.55706 3.74909 42.2747
2.49464 3.74735 42.2192
2.38051 3.74503 42.2214
2.32342 3.74386 42.2223
2.26631 3.74269 42.2231
2.20919 3.74152 42.2238
2.15206 3.74035 42.2244
2.09491 3.73917 42.2249
1.9189 3.73508 42.1692
1.85737 3.73335 42.1127
1.74326 3.73099 42.1125
1.68618 3.72981 42.1122
1.6291 3.72862 42.1118
1.57201 3.72743 42.1112
1.51491 3.72624 42.1106
0.775266 3.6829 41.9368
0.718324 3.68168 41.9347
0.661382 3.68045 41.9325
0.60444 3.67923 41.9301
0.547498 3.678 41.9277
0.490557 3.67677 41.9251
0.433619 3.67554 41.9224
0.376682 3.67431 41.9196
0.319748 3.67308 41.9167
0.262817 3.67184 41.9137
0.20589 3.67061 41.9106
-0.135562 3.66316 41.8897
-0.19408 3.66149 41.8307
5.68357 3.82832 43.0431
5.6088 3.81263 42.9071
5.55211 3.81157 42.9144
5.49539 3.81051 42.9216
5.43861 3.80945 42.9288
5.37237 3.8077 42.8765
5.30623 3.80595 42.8242
5.24949 3.80489 42.8309
5.1927 3.80382 42.8375
5.13588 3.80275 42.844
5.07003 3.80101 42.7914
4.42347 3.76073 42.6301
4.36654 3.75963 42.635
4.30959 3.75851 42.6398
4.12328 3.75398 42.5374
4.06635 3.75286 42.5417
4.00938 3.75174 42.5459
3.95239 3.75062 42.55
3.89537 3.7495 42.554
3.83831 3.74837 42.5578
3.66005 3.74441 42.5109
3.5961 3.7427 42.4566
3.53907 3.74157 42.4598
3.482 3.74043 42.463
3.42492 3.7393 42.466
3.36781 3.73816 42.469
3.25351 3.73587 42.4745
2.49431 3.6922 42.2252
2.38017 3.68984 42.2273
2.32307 3.68866 42.2282
2.26596 3.68748 42.229
2.20884 3.68629 42.2297
2.1517 3.6851 42.2302
2.09455 3.68392 42.2307
1.91852 3.67987 42.1748
1.85698 3.6782 42.1184
1.74286 3.67581 42.1181
1.68578 3.67462 42.1177
1.62869 3.67342 42.1173
1.5716 3.67221 42.1168
1.5145 3.67101 42.1161
1.45739 3.66981 42.1153
1.40445 3.65531 42.0922
1.34736 3.6541 42.0913
1.29026 3.65288 42.0902
1.22888 3.66497 42.1111
1.17605 3.65045 42.0876
1.11986 3.63551 42.0083
0.948829 3.63183 42.0035
0.888701 3.63021 41.9459
0.774815 3.62775 41.9419
0.71787 3.62651 41.9398
0.660925 3.62528 41.9375
0.60398 3.62404 41.9351
0.547036 3.62281 41.9327
0.490093 3.62157 41.9301
0.433151 3.62033 41.9274
0.376212 3.61909 41.9246
0.319276 3.61784 41.9216
0.262343 3.6166 41.9186
0.205414 3.61535 41.9155
0.148489 3.61411 41.9122
5.60887 3.75723 42.9151
5.55217 3.75615 42.9224
5.49544 3.75507 42.9295
5.43866 3.75399 42.9366
5.37239 3.75229 42.8844
5.30624 3.7506 42.832
5.24949 3.74951 42.8386
5.1927 3.74843 42.8452
5.13587 3.74733 42.8516
5.07001 3.74565 42.799
4.89064 3.74177 42.7583
4.83376 3.74067 42.7642
4.77685 3.73957 42.7699
4.7199 3.73846 42.7755
4.06618 3.69761 42.5487
4.00921 3.69648 42.5528
3.95221 3.69533 42.5569
3.89518 3.69419 42.5608
3.83812 3.69305 42.5646
3.65289 3.68861 42.4599
3.59588 3.68746 42.4632
3.53883 3.68631 42.4665
3.48177 3.68516 42.4696
3.42467 3.684 42.4726
3.36756 3.68284 42.4755
3.25325 3.68053 42.4809
3.18979 3.67888 42.426
3.12646 3.67724 42.371
3.07583 3.64973 42.3278
3.01554 3.66173 42.3527
2.95845 3.66056 42.3548
2.90134 3.65938 42.3568
2.84421 3.65821 42.3587
2.78706 3.65703 42.3605
2.7277 3.64221 42.2825
2.55642 3.63864 42.2868
2.49397 3.63703 42.2312
2.43691 3.63584 42.2323
2.37982 3.63464 42.2333
2.32272 3.63345 42.2341
2.26561 3.63225 42.2349
2.20848 3.63105 42.2355
2.15134 3.62984 42.236
2.09418 3.62864 42.2365
1.91814 3.62463 42.1806
1.85659 3.62303 42.1241
0.948389 3.57661 42.0087
0.888253 3.57506 41.9511
0.774361 3.57258 41.9471
0.717413 3.57133 41.9449
0.660465 3.57009 41.9426
0.603518 3.56884 41.9402
0.546571 3.56759 41.9377
0.489625 3.56635 41.9351
0.432681 3.5651 41.9323
0.37574 3.56385 41.9295
0.318801 3.56259 41.9265
0.261866 3.56134 41.9235
0.204934 3.56009 41.9203
0.148007 3.55883 41.9171
-0.136543 3.55254 41.8991
-0.195076 3.55101 41.8401
5.55223 3.70071 42.9303
5.49549 3.6996 42.9375
5.4387 3.69849 42.9445
5.37242 3.69686 42.8922
5.30626 3.69523 42.8397
5.2495 3.69412 42.8464
5.1927 3.693 42.8529
5.13585 3.69189 42.8593
5.06998 3.69026 42.8067
4.94743 3.68752 42.7599
4.89058 3.6864 42.7658
4.83589 3.67216 42.7478
4.77901 3.67103 42.7534
4.66513 3.66876 42.7644
4.59984 3.66713 42.7111
4.53466 3.66555 42.6579
4.47775 3.66441 42.663
4.42081 3.66327 42.668
4.3663 3.64899 42.6493
4.30933 3.64783 42.654
4.12296 3.6435 42.5514
4.06601 3.64234 42.5556
4.00904 3.64119 42.5598
3.95203 3.64003 42.5638
3.895 3.63886 42.5677
3.83793 3.6377 42.5715
3.65267 3.63337 42.4666
3.59565 3.6322 42.4699
3.5386 3.63103 42.4731
3.48153 3.62986 42.4762
2.79015 3.58854 42.3439
2.72738 3.587 42.2887
2.55609 3.58338 42.2929
2.49364 3.58184 42.2372
2.37947 3.57942 42.2392
2.32237 3.57821 42.2401
2.26525 3.57699 42.2408
2.20812 3.57578 42.2414
2.15097 3.57456 42.2419
2.08908 3.57303 42.1858
1.91775 3.56937 42.1863
1.85619 3.56784 42.1298
1.74205 3.5654 42.1293
1.68497 3.56417 42.129
1.62787 3.56295 42.1285
1.57077 3.56172 42.1279
1.51366 3.56049 42.1271
1.45654 3.55926 42.1263
1.39942 3.55803 42.1254
0.603052 3.51362 41.9452
0.546103 3.51236 41.9427
0.489155 3.51111 41.9401
0.432208 3.50985 41.9373
0.375265 3.50859 41.9344
0.318324 3.50733 41.9315
0.261386 3.50606 41.9284
0.204452 3.5048 41.9252
-0.137038 3.49721 41.9038
-0.195578 3.49575 41.8448
5.68549 3.6484 43.0427
5.609 3.64637 42.9311
5.55229 3.64524 42.9383
5.49553 3.64411 42.9454
5.43874 3.64297 42.9524
5.37244 3.6414 42.9
5.30627 3.63983 42.8476
5.2495 3.63869 42.8542
5.19269 3.63756 42.8607
5.13584 3.63642 42.867
5.06096 3.63442 42.7554
4.42312 3.5948 42.6516
4.36617 3.59363 42.6565
4.3092 3.59246 42.6611
4.1228 3.58823 42.5584
4.06584 3.58705 42.5626
4.00886 3.58587 42.5667
3.95185 3.58469 42.5707
3.89481 3.58351 42.5745
3.83774 3.58233 42.5783
3.65244 3.5781 42.4733
3.59542 3.57692 42.4766
3.53836 3.57573 42.4798
3.48128 3.57454 42.4828
3.42418 3.57335 42.4858
3.36705 3.57215 42.4886
3.25272 3.56976 42.4939
3.18924 3.56825 42.4389
2.37912 3.52418 42.2452
2.32202 3.52295 42.246
2.26489 3.52172 42.2467
2.1506 3.51926 42.2477
2.0887 3.5178 42.1916
1.91736 3.51409 42.192
1.85579 3.51263 42.1355
1.79872 3.5114 42.1353
1.74165 3.51016 42.135
1.68456 3.50892 42.1346
1.62746 3.50769 42.1341
1.57035 3.50645 42.1334
1.51324 3.5052 42.1327
1.45612 3.50396 42.1318
1.39899 3.50272 42.1308
1.34186 3.50147 42.1298
1.28472 3.50023 42.1286
1.17475 3.48452 42.1037
1.11423 3.48307 42.0461
0.947499 3.46612 42.0191
0.887346 3.46471 41.9615
0.773443 3.46218 41.9573
0.71649 3.46092 41.9551
0.659537 3.45965 41.9528
0.602584 3.45838 41.9503
0.545632 3.45712 41.9477
0.488681 3.45585 41.9451
0.431733 3.45458 41.9423
0.374786 3.45331 41.9394
0.317843 3.45204 41.9364
0.260903 3.45077 41.9333
0.203967 3.4495 41.9301
0.147036 3.44823 41.9268
5.68557 3.59278 43.0508
5.60906 3.59089 42.9391
5.55234 3.58974 42.9463
5.49558 3.58858 42.9534
5.43877 3.58743 42.9603
5.37247 3.58591 42.9079
5.30627 3.5844 42.8554
5.2495 3.58324 42.862
5.19268 3.58208 42.8684
5.13582 3.58092 42.8747
5.06992 3.57942 42.822
4.94732 3.57675 42.7751
4.89046 3.57558 42.7809
4.83357 3.57442 42.7867
4.77663 3.57325 42.7923
4.06567 3.53174 42.5696
4.00868 3.53054 42.5737
3.95166 3.52934 42.5776
3.89461 3.52814 42.5814
3.83754 3.52693 42.5852
3.65222 3.52282 42.4801
3.59518 3.52161 42.4833
3.53812 3.5204 42.4865
3.48104 3.51919 42.4895
3.42393 3.51798 42.4924
3.36679 3.51677 42.4952
3.18896 3.5129 42.4454
3.1256 3.51145 42.3903
3.06851 3.51024 42.3925
3.01139 3.50902 42.3946
2.95756 3.49472 42.3738
2.90043 3.49349 42.3757
2.84329 3.49226 42.3774
2.78612 3.49104 42.3791
2.72674 3.47652 42.301
2.55542 3.4728 42.305
2.49295 3.4714 42.2493
2.43587 3.47016 42.2503
2.37877 3.46891 42.2512
2.32166 3.46767 42.252
2.26453 3.46643 42.2526
2.15023 3.46394 42.2536
2.08832 3.46254 42.1975
1.91697 3.4588 42.1978
1.85539 3.45741 42.1412
1.79832 3.45616 42.141
1.74124 3.45491 42.1407
1.68414 3.45366 42.1402
0.77298 3.40695 41.9625
0.716024 3.40568 41.9602
0.659068 3.4044 41.9579
0.602113 3.40313 41.9554
0.545158 3.40185 41.9528
0.488205 3.40057 41.9501
0.431254 3.3993 41.9473
0.374305 3.39802 41.9444
0.31736 3.39674 41.9413
0.260418 3.39546 41.9382
0.203479 3.39418 41.935
-0.138035 3.38649 41.9133
-0.196591 3.38517 41.8542
5.49562 3.53304 42.9613
5.4388 3.53186 42.9682
5.37248 3.5304 42.9158
5.30628 3.52895 42.8632
5.24949 3.52777 42.8698
5.19267 3.52658 42.8762
5.1358 3.5254 42.8825
5.06989 3.52395 42.8297
5.0041 3.52251 42.7768
4.94727 3.52132 42.7827
4.8904 3.52014 42.7885
4.83349 3.51895 42.7942
4.77655 3.51776 42.7998
4.58888 3.51369 42.6984
4.53432 3.49949 42.6799
4.47739 3.49829 42.6848
4.42043 3.49709 42.6897
4.36591 3.48285 42.6708
4.30892 3.48163 42.6754
4.12246 3.47761 42.5725
4.06549 3.4764 42.5766
4.0085 3.47518 42.5806
3.95147 3.47396 42.5845
3.89442 3.47274 42.5883
3.83733 3.47151 42.592
3.65198 3.4675 42.4868
3.59494 3.46628 42.4901
3.53788 3.46506 42.4932
3.48079 3.46383 42.4961
3.42367 3.4626 42.499
3.36653 3.46137 42.5018
2.55508 3.41748 42.3111
2.4926 3.41614 42.2554
2.43551 3.41489 42.2564
2.37841 3.41363 42.2572
2.3213 3.41237 42.258
2.26416 3.41111 42.2586
2.14986 3.40859 42.2595
2.08793 3.40726 42.2033
2.02615 3.40594 42.1471
1.91657 3.40348 42.2036
1.85499 3.40216 42.147
1.79791 3.40089 42.1467
1.74082 3.39963 42.1463
1.68373 3.39837 42.1459
1.62662 3.3971 42.1453
1.56951 3.39584 42.1446
1.51239 3.39457 42.1438
1.45526 3.3933 42.1429
1.39812 3.39203 42.1418
1.34098 3.39076 42.1407
1.28384 3.38949 42.1395
1.16953 3.38695 42.1366
-0.138537 3.3311 41.918
-0.197101 3.32986 41.8589
5.68572 3.48147 43.067
5.60917 3.47987 42.9553
5.55244 3.47867 42.9624
5.49566 3.47746 42.9693
5.43883 3.47626 42.9762
5.3725 3.47486 42.9237
5.30628 3.47347 42.8711
5.24949 3.47227 42.8776
5.19265 3.47106 42.884
5.13578 3.46985 42.8902
5.06985 3.46847 42.8374
4.3009 3.42608 42.6246
4.12229 3.42227 42.5795
4.06531 3.42103 42.5836
4.00831 3.41979 42.5876
3.95128 3.41855 42.5915
3.89422 3.41731 42.5953
3.83713 3.41607 42.5989
3.65175 3.41217 42.4936
3.5947 3.41093 42.4968
3.53763 3.40968 42.4999
3.48054 3.40844 42.5028
3.42341 3.40719 42.5057
3.36627 3.40595 42.5084
3.1821 3.40206 42.401
3.12501 3.40082 42.4032
3.0679 3.39957 42.4054
3.01078 3.39832 42.4074
2.95363 3.39707 42.4093
2.08755 3.35197 42.2092
1.91165 3.34816 42.1529
1.85458 3.34689 42.1527
1.7975 3.34561 42.1524
1.74041 3.34433 42.152
1.68331 3.34306 42.1515
1.6262 3.34178 42.1509
1.56908 3.3405 42.1502
1.51196 3.33922 42.1494
1.45482 3.33794 42.1484
1.39769 3.33666 42.1474
1.34054 3.33538 42.1462
1.28339 3.3341 42.1449
1.1085 3.3303 42.0844
1.04807 3.32906 42.0267
0.938479 3.31342 42.0011
0.881489 3.31213 41.9991
0.767505 3.30955 41.9947
0.715083 3.29515 41.9705
0.658122 3.29386 41.9681
0.601162 3.29256 41.9656
0.544202 3.29127 41.9629
0.487244 3.28997 41.9602
0.430288 3.28867 41.9573
0.373335 3.28738 41.9543
0.316385 3.28608 41.9513
0.259438 3.28478 41.9481
0.202496 3.28349 41.9448
0.145558 3.28219 41.9414
-0.139042 3.2757 41.9228
-0.197614 3.27453 41.8637
5.68579 3.42577 43.0752
5.60923 3.42432 42.9634
5.55248 3.42309 42.9704
5.49569 3.42186 42.9774
5.43886 3.42063 42.9842
5.37251 3.4193 42.9317
5.30628 3.41797 42.879
5.24948 3.41674 42.8855
5.19263 3.41551 42.8918
5.13575 3.41428 42.898
5.06981 3.41295 42.8451
5.00399 3.41163 42.7922
4.94715 3.4104 42.798
4.89026 3.40917 42.8037
4.83334 3.40793 42.8093
4.77639 3.4067 42.8148
3.95108 3.36313 42.5985
3.89402 3.36187 42.6022
3.83692 3.36061 42.6058
3.65151 3.35681 42.5004
3.59446 3.35555 42.5036
3.53738 3.35429 42.5066
3.48028 3.35303 42.5095
3.42315 3.35176 42.5123
3.366 3.3505 42.515
3.1818 3.34673 42.4075
3.12471 3.34546 42.4097
3.0676 3.3442 42.4118
3.01047 3.34293 42.4138
2.95663 3.32868 42.3929
2.89949 3.3274 42.3947
2.84233 3.32613 42.3963
2.78516 3.32485 42.3979
2.72233 3.3236 42.3422
2.54544 3.31985 42.2891
2.48832 3.31857 42.2901
2.4348 3.30428 42.2685
2.37769 3.303 42.2693
2.32056 3.30171 42.27
2.26342 3.30042 42.2705
2.1491 3.29785 42.2713
2.08716 3.29665 42.2151
2.02535 3.29546 42.1588
1.91124 3.29288 42.1587
1.85416 3.2916 42.1585
1.79708 3.29031 42.1582
1.73999 3.28902 42.1578
1.68288 3.28773 42.1572
1.62577 3.28644 42.1566
1.56865 3.28515 42.1558
1.51152 3.28386 42.155
1.45439 3.28256 42.154
0.486759 3.23464 41.9652
0.429801 3.23334 41.9623
0.372846 3.23203 41.9593
0.315893 3.23073 41.9562
0.258944 3.22942 41.953
0.202 3.22811 41.9497
-0.13955 3.22028 41.9276
-0.199807 3.2194 41.8133
5.55252 3.36749 42.9785
5.43888 3.36498 42.9922
5.37252 3.36371 42.9396
5.30627 3.36244 42.8869
5.24946 3.36119 42.8933
5.19261 3.35993 42.8996
5.13572 3.35868 42.9058
5.06977 3.35741 42.8529
5.00394 3.35615 42.7999
4.94708 3.3549 42.8057
4.89019 3.35365 42.8113
4.83326 3.35239 42.8169
4.7763 3.35113 42.8224
4.59087 3.33448 42.697
4.53396 3.33322 42.702
4.47701 3.33195 42.7068
4.42002 3.33069 42.7115
4.363 3.32942 42.7162
4.30059 3.31527 42.639
4.12193 3.31151 42.5937
4.06494 3.31023 42.5978
4.00793 3.30895 42.6017
3.95088 3.30768 42.6055
3.89381 3.3064 42.6092
3.83671 3.30512 42.6127
3.65127 3.30143 42.5072
3.59421 3.30015 42.5103
3.53713 3.29887 42.5133
3.48002 3.29759 42.5162
3.42289 3.29631 42.519
3.36573 3.29503 42.5217
2.49154 3.25025 42.2737
2.43444 3.24895 42.2746
2.37732 3.24765 42.2753
2.32019 3.24635 42.276
2.26305 3.24505 42.2765
2.14872 3.24244 42.2772
2.08676 3.24131 42.221
2.02495 3.24019 42.1646
1.91083 3.23759 42.1645
1.85375 3.23628 42.1643
1.79666 3.23498 42.1639
1.73956 3.23368 42.1635
1.68246 3.23238 42.1629
1.62534 3.23108 42.1622
1.56822 3.22977 42.1615
1.51109 3.22847 42.1606
1.45395 3.22717 42.1595
1.33965 3.22456 42.1572
1.28249 3.22325 42.1559
1.10757 3.21955 42.0952
1.04713 3.21845 42.0375
-0.14006 3.16484 41.9323
-0.200331 3.16412 41.8181
5.68593 3.31429 43.0915
5.60932 3.31313 42.9796
5.55256 3.31186 42.9866
5.4389 3.3093 43.0002
5.37253 3.30809 42.9476
5.30627 3.30688 42.8948
5.24945 3.30561 42.9012
5.19259 3.30433 42.9075
5.13569 3.30305 42.9136
5.06972 3.30185 42.8607
4.36535 3.26099 42.6998
4.30044 3.25983 42.6462
4.23564 3.25868 42.5925
4.12175 3.25609 42.6008
4.06476 3.2548 42.6048
4.00773 3.2535 42.6087
3.95068 3.2522 42.6125
3.8936 3.2509 42.6161
3.82927 3.24976 42.5619
3.65103 3.24603 42.5141
3.59396 3.24473 42.5171
3.53687 3.24343 42.5201
3.47976 3.24214 42.523
3.42262 3.24084 42.5257
3.35891 3.23971 42.4709
3.1812 3.23599 42.4206
3.1241 3.23469 42.4227
3.06698 3.23339 42.4248
3.00983 3.23209 42.4267
2.95267 3.23079 42.4286
2.89548 3.22949 42.4303
2.83828 3.22819 42.4319
2.78106 3.22689 42.4334
2.02454 3.1849 42.1705
1.91041 3.18227 42.1703
1.85333 3.18095 42.1701
1.79624 3.17964 42.1697
1.73914 3.17833 42.1692
1.68203 3.17701 42.1686
1.62491 3.1757 42.1679
1.56778 3.17438 42.1671
1.51065 3.17306 42.1662
1.4535 3.17175 42.1651
1.3392 3.16912 42.1627
1.27838 3.16808 42.1053
1.10367 3.16443 42.0446
1.04665 3.16312 42.0429
0.932595 3.16049 42.039
0.875564 3.15918 42.0369
0.818532 3.15787 42.0346
0.766059 3.14355 42.0104
0.709058 3.14223 42.008
0.652058 3.14092 42.0055
0.595058 3.1396 42.0028
0.538059 3.13828 42.0001
0.481062 3.13696 41.9972
0.424067 3.13564 41.9943
0.367075 3.13433 41.9912
0.310087 3.13301 41.988
0.253102 3.13169 41.9848
0.196122 3.13038 41.9814
0.130039 3.14277 41.8887
-0.140573 3.10939 41.9371
-0.200857 3.10882 41.8229
5.686 3.25852 43.0997
5.60937 3.2575 42.9878
5.5526 3.2562 42.9947
5.43892 3.2536 43.0082
5.36304 3.2526 42.8964
5.30626 3.2513 42.9028
5.24943 3.25 42.9091
5.19256 3.2487 42.9153
5.13565 3.2474 42.9214
5.06968 3.24626 42.8684
5.00381 3.24512 42.8153
4.94694 3.24382 42.8211
4.89004 3.24253 42.8267
4.83309 3.24123 42.8321
4.77611 3.23993 42.8375
4.00753 3.19802 42.6158
3.95048 3.1967 42.6195
3.89339 3.19539 42.6231
3.82905 3.19431 42.5689
3.76484 3.19323 42.5145
3.65078 3.1906 42.5209
3.59371 3.18929 42.524
3.53661 3.18797 42.5269
3.47949 3.18665 42.5297
3.42235 3.18534 42.5324
3.35863 3.18428 42.4775
3.1809 3.18059 42.4272
3.12379 3.17927 42.4293
3.06666 3.17796 42.4313
3.00951 3.17664 42.4332
2.95234 3.17532 42.435
2.89515 3.17401 42.4367
2.78416 3.15847 42.4168
2.7213 3.15742 42.361
2.65855 3.15642 42.3055
2.54435 3.15377 42.3076
2.48722 3.15245 42.3085
2.4337 3.13822 42.2868
2.37658 3.13689 42.2875
2.31944 3.13556 42.2881
2.26229 3.13423 42.2885
2.14794 3.13157 42.2891
2.08596 3.13058 42.2328
2.02413 3.12959 42.1764
1.91 3.12693 42.1762
1.85291 3.1256 42.1759
1.79581 3.12428 42.1755
1.73871 3.12295 42.175
1.6816 3.12162 42.1743
1.62447 3.12029 42.1736
1.56734 3.11897 42.1728
1.5102 3.11764 42.1718
1.45306 3.11631 42.1707
1.27792 3.11269 42.1109
-0.141089 3.05392 41.9419
-0.201386 3.0535 41.8277
5.55263 3.20051 43.0028
5.36304 3.19701 42.9044
5.30624 3.19569 42.9108
5.24941 3.19437 42.9171
5.19253 3.19304 42.9232
5.13562 3.19172 42.9293
5.06962 3.19064 42.8763
5.00375 3.18957 42.8231
4.94687 3.18825 42.8288
4.88996 3.18693 42.8343
4.833 3.1856 42.8398
4.77602 3.18428 42.8451
4.5905 3.16805 42.7194
4.53357 3.16672 42.7242
4.47659 3.16539 42.7289
4.41959 3.16406 42.7336
4.36255 3.16273 42.7381
4.30011 3.14888 42.6607
4.23529 3.14786 42.6069
4.12137 3.14519 42.6151
4.06437 3.14385 42.6191
4.00733 3.14252 42.6229
3.95027 3.14118 42.6266
3.89317 3.13984 42.6301
3.82882 3.13883 42.5758
3.7646 3.13782 42.5214
3.65053 3.13515 42.5278
3.59345 3.13382 42.5308
3.53635 3.13248 42.5337
3.47922 3.13115 42.5365
3.42207 3.12982 42.5391
3.35834 3.12882 42.4842
2.31906 3.08014 42.2941
2.2619 3.07879 42.2946
2.14754 3.0761 42.2951
2.08556 3.07518 42.2388
2.02372 3.07425 42.1823
1.90958 3.07157 42.182
1.85249 3.07023 42.1817
1.79539 3.06889 42.1813
1.73828 3.06755 42.1807
1.68116 3.06621 42.1801
1.62403 3.06487 42.1793
1.5669 3.06353 42.1784
1.50976 3.06219 42.1774
1.45261 3.06085 42.1763
1.27745 3.05728 42.1164
1.10272 3.05372 42.0555
1.04569 3.05239 42.0537
0.988655 3.05106 42.0517
0.93162 3.04972 42.0497
0.874584 3.04839 42.0475
0.817546 3.04706 42.0452
0.760508 3.04573 42.0429
0.128973 3.03207 41.8987
5.68612 3.14688 43.1162
5.60945 3.14615 43.0041
5.55266 3.1448 43.011
5.43895 3.14211 43.0244
5.36303 3.1414 42.9124
5.30623 3.14005 42.9188
5.24938 3.13871 42.925
5.1925 3.13736 42.9311
5.13557 3.13602 42.9371
5.06957 3.135 42.8841
4.29203 3.09376 42.61
4.23511 3.09241 42.6142
4.12118 3.0897 42.6223
4.06417 3.08834 42.6262
4.00713 3.08699 42.63
3.95006 3.08563 42.6336
3.89296 3.08428 42.6372
3.82859 3.08333 42.5828
3.76436 3.08238 42.5284
3.65027 3.07968 42.5347
3.59319 3.07833 42.5376
3.53609 3.07698 42.5405
3.47895 3.07562 42.5432
3.4218 3.07427 42.5459
3.35806 3.07334 42.4909
3.18028 3.06971 42.4403
3.12316 3.06836 42.4424
3.06602 3.06702 42.4444
3.00886 3.06567 42.4462
2.95168 3.06432 42.4479
2.89448 3.06297 42.4496
2.78002 3.06027 42.4524
1.85206 3.01484 42.1875
1.79496 3.01349 42.1871
1.73784 3.01214 42.1865
1.68072 3.01078 42.1858
1.62359 3.00943 42.185
1.56645 3.00808 42.1841
1.50931 3.00673 42.1831
1.45215 3.00538 42.182
1.27699 3.00185 42.1219
1.21629 3.00103 42.0644
1.10223 2.99834 42.061
1.0452 2.997 42.0591
0.988166 2.99565 42.0571
0.931129 2.99431 42.055
0.87409 2.99297 42.0529
0.817049 2.99163 42.0506
0.760008 2.99029 42.0481
0.702967 2.98894 42.0456
0.645927 2.9876 42.043
0.588887 2.98626 42.0403
0.536558 2.972 42.0155
0.479553 2.97066 42.0126
0.365553 2.96797 42.0064
0.308558 2.96663 42.0031
0.19458 2.96395 41.9963
0.128436 2.97669 41.9037
-0.142127 2.94293 41.9515
-0.202451 2.94281 41.8373
5.68618 3.09102 43.1245
5.60949 3.09044 43.0124
5.55269 3.08906 43.0192
5.43896 3.08632 43.0325
5.36302 3.08576 42.9204
5.30621 3.08439 42.9268
5.24936 3.08302 42.933
5.19246 3.08165 42.9391
5.13553 3.08029 42.945
5.06951 3.07933 42.8919
5.00361 3.07838 42.8387
4.94672 3.07701 42.8443
4.88979 3.07565 42.8498
4.83282 3.07429 42.8551
4.77581 3.07292 42.8604
4.70175 3.0724 42.7482
3.82836 3.0278 42.5898
3.76411 3.02692 42.5353
3.65002 3.02418 42.5416
3.59293 3.02281 42.5445
3.53582 3.02144 42.5473
3.47868 3.02007 42.55
3.42152 3.0187 42.5526
3.35776 3.01784 42.4977
3.17997 3.01424 42.447
3.12284 3.01288 42.449
3.0657 3.01151 42.4509
3.00853 3.01015 42.4527
2.95135 3.00878 42.4544
2.89414 3.00742 42.456
2.71675 3.00385 42.403
2.65747 2.99024 42.3244
2.6039 2.97609 42.3028
2.54324 2.9875 42.3263
2.48609 2.98614 42.3271
2.42894 2.98477 42.3278
2.37177 2.9834 42.3284
2.31458 2.98204 42.3289
2.25738 2.98067 42.3293
2.14675 2.96511 42.3071
2.08475 2.96432 42.2507
2.02289 2.96353 42.1942
1.90873 2.9608 42.1938
1.85163 2.95943 42.1934
1.79452 2.95806 42.1929
1.73741 2.9567 42.1923
1.68028 2.95534 42.1916
1.62315 2.95397 42.1907
1.566 2.95261 42.1898
1.50885 2.95124 42.1888
1.44779 2.95048 42.1316
1.27652 2.9464 42.1275
1.21581 2.94565 42.0699
1.10175 2.94294 42.0664
1.04471 2.94159 42.0645
0.127896 2.9213 41.9087
5.55271 3.0333 43.0274
5.36301 3.03009 42.9285
5.30619 3.0287 42.9348
5.24933 3.02731 42.9409
5.19243 3.02592 42.947
5.13548 3.02453 42.9529
5.06945 3.02364 42.8998
5.00354 3.02274 42.8465
4.94663 3.02136 42.8521
4.8897 3.01997 42.8575
4.83272 3.01859 42.8628
4.76711 3.01771 42.8094
4.70393 3.00416 42.732
4.59011 3.00138 42.7419
4.53315 2.99999 42.7466
4.47615 2.99861 42.7512
4.41913 2.99722 42.7558
4.36206 2.99583 42.7601
4.29706 2.99496 42.706
4.23475 2.98143 42.6287
4.17778 2.98004 42.6328
4.12079 2.97865 42.6367
4.06376 2.97725 42.6405
4.00671 2.97586 42.6442
3.94962 2.97447 42.6478
3.89251 2.97308 42.6513
3.82812 2.97225 42.5969
3.76387 2.97144 42.5423
3.64976 2.96866 42.5485
3.59266 2.96727 42.5514
3.53554 2.96589 42.5542
3.4784 2.9645 42.5568
3.42123 2.96311 42.5594
3.35747 2.96231 42.5044
3.17965 2.95875 42.4536
3.12252 2.95737 42.4556
2.08433 2.90885 42.2567
2.02247 2.90813 42.2002
1.9083 2.90538 42.1997
1.8512 2.904 42.1992
1.79408 2.90262 42.1987
1.73696 2.90124 42.1981
1.67983 2.89987 42.1973
1.6227 2.89849 42.1965
1.5084 2.89574 42.1944
1.44732 2.89505 42.1372
1.27604 2.89094 42.133
1.21533 2.89025 42.0754
1.10126 2.88752 42.0719
1.04422 2.88616 42.07
0.987181 2.88479 42.068
0.930137 2.88343 42.0658
0.873093 2.88207 42.0636
0.816047 2.88071 42.0612
0.759 2.87935 42.0588
0.701954 2.87799 42.0562
0.644908 2.87663 42.0535
0.587864 2.87527 42.0507
0.530821 2.87391 42.0478
5.68628 2.97922 43.1411
5.60955 2.97892 43.0289
5.55274 2.97751 43.0356
5.363 2.9744 42.9366
5.30617 2.97298 42.9428
5.2493 2.97157 42.9489
5.13544 2.96875 42.9609
5.06939 2.96791 42.9077
4.29943 2.92668 42.69
4.23456 2.92591 42.636
4.17759 2.9245 42.64
4.12059 2.92308 42.6439
4.06356 2.92167 42.6477
4.00649 2.92026 42.6514
3.9494 2.91885 42.6549
3.89228 2.91744 42.6583
3.82789 2.91668 42.6039
3.76361 2.91593 42.5493
3.70657 2.91452 42.5524
3.64949 2.91312 42.5554
3.59239 2.91171 42.5583
3.53527 2.91031 42.561
3.47812 2.9089 42.5637
3.42094 2.9075 42.5662
3.35717 2.90676 42.5111
3.29353 2.90603 42.456
3.17933 2.90323 42.4603
3.12219 2.90183 42.4622
3.06504 2.90044 42.4641
3.00786 2.89904 42.4658
2.95067 2.89764 42.4674
2.89345 2.89625 42.4689
2.71602 2.89275 42.4157
2.65321 2.89204 42.3597
2.59606 2.89065 42.3606
2.53889 2.88927 42.3615
1.67939 2.84438 42.2031
1.62225 2.84299 42.2022
1.50794 2.84022 42.2001
1.44686 2.83959 42.1429
1.27556 2.83545 42.1386
1.21484 2.83484 42.081
1.10077 2.83208 42.0774
1.04373 2.83071 42.0755
0.986684 2.82934 42.0734
0.929637 2.82796 42.0712
0.87259 2.82659 42.0689
0.815541 2.82522 42.0666
0.758492 2.82385 42.0641
0.701444 2.82248 42.0615
0.644395 2.82111 42.0588
0.530303 2.81838 42.053
0.47326 2.81702 42.05
0.359182 2.81429 42.0436
0.302149 2.81293 42.0403
0.188095 2.81021 42.0332
0.12681 2.81046 41.9188
-0.148812 2.7892 41.9879
-0.204067 2.77666 41.8518
5.68633 2.92328 43.1494
5.60958 2.92313 43.0371
5.55276 2.92169 43.0438
5.36298 2.91868 42.9447
5.30614 2.91724 42.9509
5.24926 2.91581 42.957
5.13538 2.91294 42.9688
5.06932 2.91217 42.9156
5.00338 2.9114 42.8622
4.94646 2.90997 42.8677
4.88951 2.90854 42.873
4.83252 2.90711 42.8783
4.76688 2.90636 42.8248
3.82039 2.86182 42.5532
3.76336 2.8604 42.5564
3.70631 2.85897 42.5594
3.64923 2.85755 42.5624
3.59212 2.85613 42.5652
3.53499 2.8547 42.5679
3.47784 2.85328 42.5705
3.42065 2.85186 42.573
3.35687 2.85119 42.5179
3.29322 2.85052 42.4627
3.17901 2.84769 42.4669
3.12187 2.84628 42.4688
3.06471 2.84487 42.4707
3.00752 2.84345 42.4724
2.95032 2.84204 42.474
2.8931 2.84063 42.4754
2.71565 2.83717 42.4221
2.65283 2.83653 42.366
2.59568 2.83512 42.367
2.53851 2.83372 42.3678
2.48132 2.83232 42.3685
2.42777 2.81822 42.3464
2.37058 2.81681 42.3469
2.31338 2.8154 42.3473
2.25617 2.814 42.3476
2.08445 2.80978 42.3477
2.02161 2.79729 42.2121
1.96453 2.79588 42.2119
1.90743 2.79448 42.2115
1.85032 2.79307 42.211
1.7932 2.79167 42.2104
1.73607 2.79027 42.2097
1.67894 2.78887 42.2089
1.62179 2.78747 42.208
1.50748 2.78467 42.2058
1.44639 2.78412 42.1486
1.27509 2.77994 42.1442
1.21436 2.7794 42.0866
1.10028 2.77663 42.0829
1.04323 2.77524 42.0809
0.986184 2.77386 42.0788
0.929135 2.77248 42.0766
0.872084 2.77109 42.0743
0.815033 2.76971 42.0719
0.757982 2.76833 42.0694
5.60961 2.8673 43.0454
5.55277 2.86584 43.0521
5.36296 2.86293 42.9528
5.30611 2.86147 42.959
5.24922 2.86001 42.965
5.06019 2.85714 42.8645
5.0033 2.85569 42.8701
4.94637 2.85424 42.8755
4.88941 2.85279 42.8808
4.83241 2.85134 42.886
4.76676 2.85064 42.8325
4.70355 2.8374 42.755
4.64899 2.82338 42.736
4.58969 2.83449 42.7646
4.5327 2.83304 42.7692
4.47569 2.83159 42.7737
4.41864 2.83014 42.7781
4.36155 2.8287 42.7824
4.29651 2.82801 42.7281
4.23158 2.82738 42.6741
4.17719 2.81334 42.6546
4.12018 2.81189 42.6584
4.06313 2.81044 42.6621
4.00606 2.80899 42.6657
3.8274 2.80546 42.618
3.7631 2.80484 42.5634
3.70604 2.8034 42.5664
3.64896 2.80196 42.5693
3.59185 2.80052 42.5721
3.53471 2.79908 42.5748
3.47755 2.79764 42.5774
3.42036 2.7962 42.5798
3.35657 2.79559 42.5247
3.2929 2.79499 42.4695
3.17868 2.79213 42.4736
3.12153 2.7907 42.4755
3.06437 2.78927 42.4773
3.00718 2.78784 42.4789
2.94998 2.78641 42.4805
2.89275 2.78499 42.482
1.90699 2.73899 42.2174
1.84988 2.73758 42.2169
1.79275 2.73616 42.2163
1.73562 2.73475 42.2156
1.67848 2.73334 42.2147
1.62134 2.73193 42.2138
1.50702 2.72911 42.2116
1.44592 2.72862 42.1543
1.38496 2.72814 42.0969
1.2746 2.72441 42.1498
1.21386 2.72394 42.0921
1.09978 2.72115 42.0884
1.04273 2.71975 42.0864
0.985681 2.71836 42.0843
0.928629 2.71697 42.0821
0.871576 2.71558 42.0797
0.814522 2.71419 42.0773
0.757468 2.7128 42.0747
0.700414 2.71141 42.0721
0.643361 2.71003 42.0693
0.529259 2.70726 42.0635
0.469611 2.70683 42.0049
0.358124 2.70312 42.0539
0.301087 2.70175 42.0505
0.187025 2.699 42.0434
0.125713 2.69955 41.9288
5.68642 2.81131 43.1661
5.60963 2.81145 43.0537
5.55279 2.80997 43.0603
5.36293 2.80715 42.9609
5.30608 2.80567 42.9671
5.24918 2.80419 42.9731
5.06011 2.80142 42.8724
4.23398 2.75919 42.658
4.17699 2.75772 42.6619
4.11997 2.75625 42.6657
4.06291 2.75478 42.6693
4.00583 2.75332 42.6729
3.82715 2.74982 42.6251
3.76284 2.74926 42.5704
3.70578 2.7478 42.5734
3.64869 2.74634 42.5763
3.59157 2.74488 42.579
3.53443 2.74343 42.5817
3.47726 2.74197 42.5842
3.42007 2.74052 42.5866
3.35626 2.73998 42.5315
3.29258 2.73944 42.4762
3.23548 2.73799 42.4783
3.17835 2.73655 42.4803
3.1212 2.7351 42.4822
3.06403 2.73365 42.4839
3.00684 2.73221 42.4855
2.94963 2.73077 42.4871
2.89239 2.72932 42.4885
2.70921 2.72687 42.3778
2.65206 2.72543 42.3788
2.5949 2.724 42.3797
2.53772 2.72257 42.3804
2.48052 2.72114 42.3811
2.42331 2.71971 42.3816
1.50655 2.67353 42.2173
1.44544 2.67311 42.16
1.38448 2.6727 42.1025
1.27041 2.66988 42.0994
1.21337 2.66847 42.0977
1.09928 2.66565 42.094
1.04223 2.66425 42.0919
0.985176 2.66285 42.0898
0.928121 2.66144 42.0875
0.871065 2.66004 42.0852
0.814009 2.65864 42.0827
0.756952 2.65725 42.0801
0.699895 2.65585 42.0774
0.64284 2.65446 42.0746
0.528733 2.65167 42.0687
0.469077 2.65132 42.0101
0.357592 2.64751 42.0591
0.300552 2.64613 42.0556
0.186486 2.64336 42.0484
0.125161 2.64407 41.9339
-0.21082 2.6231 41.8879
5.60965 2.75557 43.0621
5.5528 2.75406 43.0686
5.36291 2.75135 42.9691
5.30604 2.74985 42.9752
5.24914 2.74835 42.9811
5.06003 2.74568 42.8804
5.00312 2.74418 42.8859
4.94618 2.74269 42.8912
4.8892 2.7412 42.8965
4.83219 2.73971 42.9016
4.76651 2.73914 42.8479
4.70096 2.73858 42.7941
4.64399 2.73709 42.7989
3.76258 2.69365 42.5775
3.70551 2.69218 42.5804
3.64841 2.6907 42.5833
3.59129 2.68923 42.586
3.53414 2.68775 42.5886
3.41977 2.68481 42.5935
3.35595 2.68433 42.5383
3.29226 2.68387 42.483
3.23515 2.6824 42.4851
3.17802 2.68094 42.487
3.12086 2.67948 42.4888
3.06369 2.67802 42.4905
3.00649 2.67656 42.4921
2.94927 2.6751 42.4936
2.89204 2.67364 42.495
2.70883 2.6713 42.3843
2.65168 2.66985 42.3852
2.5945 2.6684 42.386
2.53732 2.66696 42.3868
2.48012 2.66551 42.3874
2.4229 2.66407 42.3879
2.36566 2.66263 42.3882
2.31216 2.64858 42.3658
2.2499 2.64816 42.3093
2.07838 2.64383 42.3091
2.01643 2.64346 42.2525
1.9593 2.64202 42.2521
1.90216 2.64059 42.2516
1.84898 2.62653 42.2288
1.79185 2.62509 42.2281
1.73471 2.62366 42.2273
1.67757 2.62222 42.2264
1.62041 2.62079 42.2254
1.50608 2.61792 42.223
1.44496 2.61758 42.1657
1.38399 2.61724 42.1082
1.26992 2.61439 42.1051
1.21287 2.61297 42.1033
1.09878 2.61014 42.0995
1.04172 2.60872 42.0974
0.984667 2.60731 42.0953
0.92761 2.6059 42.093
0.870552 2.60449 42.0906
0.813492 2.60308 42.0881
0.756433 2.60168 42.0855
0.699374 2.60027 42.0828
0.642316 2.59887 42.0799
0.528204 2.59607 42.074
0.46854 2.59578 42.0153
0.357057 2.59188 42.0642
0.297631 2.59161 42.0053
0.124606 2.58857 41.939
5.60967 2.69967 43.0704
5.54303 2.69912 43.0177
5.41971 2.69705 42.9711
5.36288 2.69552 42.9773
5.306 2.694 42.9833
5.24909 2.69248 42.9892
5.05995 2.68991 42.8883
5.00303 2.68839 42.8938
4.94608 2.68688 42.8991
4.8891 2.68537 42.9043
4.83207 2.68386 42.9094
4.76638 2.68335 42.8557
4.70314 2.6704 42.778
4.64621 2.66888 42.7828
4.58924 2.66737 42.7874
4.53223 2.66586 42.7919
4.47519 2.66435 42.7963
4.29594 2.66085 42.7504
4.23097 2.6604 42.6962
4.17393 2.6589 42.7001
4.11954 2.64491 42.6803
4.06247 2.6434 42.6839
4.00538 2.6419 42.6873
3.82664 2.63846 42.6393
3.76231 2.63803 42.5846
3.70524 2.63653 42.5875
3.64813 2.63504 42.5903
3.591 2.63355 42.593
3.53385 2.63206 42.5955
3.41946 2.62908 42.6004
3.35564 2.62867 42.5451
3.29194 2.62827 42.4898
3.23482 2.62679 42.4918
3.17768 2.62531 42.4937
3.12052 2.62383 42.4955
3.06334 2.62235 42.4972
3.00614 2.62088 42.4988
2.94891 2.6194 42.5002
2.89167 2.61793 42.5016
1.7914 2.56953 42.234
1.73426 2.56808 42.2332
1.67711 2.56663 42.2322
1.61995 2.56518 42.2312
1.50561 2.5623 42.2288
1.44448 2.56202 42.1714
1.3835 2.56175 42.1139
1.26942 2.55889 42.1107
1.21237 2.55746 42.1089
1.15532 2.55603 42.107
1.09827 2.5546 42.105
1.04121 2.55318 42.1029
0.984156 2.55176 42.1007
0.927096 2.55034 42.0984
0.870035 2.54892 42.096
0.812973 2.5475 42.0935
0.755911 2.54608 42.0908
0.69885 2.54467 42.0881
0.641789 2.54326 42.0853
0.527673 2.54044 42.0792
0.468001 2.54023 42.0206
0.356519 2.53623 42.0694
0.297086 2.53603 42.0105
0.185401 2.53204 42.0586
0.124049 2.53305 41.944
5.60969 2.64373 43.0788
5.54303 2.64324 43.026
5.41969 2.64121 42.9793
5.36285 2.63967 42.9855
5.30596 2.63812 42.9915
5.24904 2.63658 42.9973
4.23337 2.59225 42.6801
4.17636 2.59072 42.6839
4.11932 2.5892 42.6876
4.06224 2.58767 42.6911
4.00514 2.58615 42.6946
3.82639 2.58274 42.6465
3.76205 2.58237 42.5917
3.70496 2.58086 42.5946
3.64785 2.57935 42.5973
3.59071 2.57784 42.6
3.53355 2.57634 42.6025
3.35532 2.57298 42.552
3.29161 2.57264 42.4966
3.23449 2.57115 42.4986
3.17734 2.56965 42.5005
3.12018 2.56816 42.5022
3.06299 2.56667 42.5039
3.00578 2.56518 42.5054
2.94855 2.56369 42.5068
2.89131 2.5622 42.5081
2.70805 2.5601 42.3972
2.65089 2.55862 42.3981
2.59371 2.55715 42.3988
2.53651 2.55567 42.3995
2.4793 2.5542 42.4
2.42207 2.55273 42.4004
2.30757 2.54979 42.401
1.21187 2.50192 42.1145
1.15482 2.50049 42.1126
1.09776 2.49905 42.1106
1.0407 2.49762 42.1085
0.983643 2.49618 42.1062
0.92658 2.49475 42.1039
0.869516 2.49333 42.1015
0.812452 2.4919 42.0989
0.698323 2.48905 42.0935
0.64126 2.48763 42.0906
0.527139 2.4848 42.0845
0.46746 2.48466 42.0258
0.296538 2.48044 42.0156
0.12349 2.47752 41.9491
-0.160803 2.47057 41.9286
-0.217637 2.46919 41.9241
5.6097 2.58777 43.0872
5.55282 2.58619 43.0936
5.47647 2.58692 42.9814
5.41966 2.58535 42.9876
5.36281 2.58378 42.9937
5.30592 2.58222 42.9996
5.24899 2.58065 43.0055
5.05977 2.57829 42.9043
5.00284 2.57673 42.9097
4.94588 2.57518 42.9149
4.88887 2.57362 42.9201
4.83183 2.57207 42.9251
4.76612 2.57169 42.8713
4.70052 2.57132 42.8174
3.70468 2.52517 42.6016
3.64757 2.52364 42.6044
3.59042 2.52212 42.607
3.53326 2.52059 42.6095
3.355 2.51727 42.5588
3.29128 2.517 42.5034
3.23415 2.51549 42.5054
3.177 2.51398 42.5072
3.11983 2.51247 42.5089
3.06264 2.51096 42.5106
3.00542 2.50945 42.5121
2.94819 2.50795 42.5134
2.885 2.5077 42.4576
2.82194 2.50746 42.4016
2.70766 2.50447 42.4037
2.65049 2.50298 42.4045
2.5933 2.50149 42.4052
2.5361 2.5 42.4059
2.47889 2.49851 42.4064
2.42166 2.49703 42.4068
2.30715 2.49406 42.4072
2.24483 2.49385 42.3505
2.06836 2.49071 42.2934
2.01509 2.47674 42.2707
1.95794 2.47527 42.2702
1.90079 2.47379 42.2696
1.84362 2.47232 42.269
1.78645 2.47086 42.2682
1.72926 2.46939 42.2673
1.67617 2.45539 42.244
1.61901 2.45392 42.2429
1.44351 2.45085 42.1829
1.38251 2.45072 42.1254
1.26842 2.44782 42.122
1.21137 2.44637 42.1202
1.15431 2.44492 42.1182
1.09725 2.44348 42.1162
1.04019 2.44203 42.114
0.983126 2.44059 42.1118
0.926061 2.43915 42.1094
0.868994 2.43772 42.1069
0.811927 2.43628 42.1043
0.697794 2.43342 42.0988
0.640729 2.43199 42.0959
0.526603 2.42914 42.0898
0.466916 2.42907 42.0311
0.295987 2.42483 42.0208
0.122928 2.42197 41.9542
5.60971 2.53178 43.0956
5.54302 2.53142 43.0427
5.47645 2.53106 42.9897
5.41963 2.52947 42.9959
5.36277 2.52787 43.0019
5.30587 2.52628 43.0078
5.24893 2.5247 43.0136
5.05968 2.52244 42.9123
5.00274 2.52086 42.9177
4.94577 2.51929 42.9229
4.88876 2.51771 42.928
4.83171 2.51614 42.9329
4.76598 2.51582 42.8791
4.70037 2.51551 42.8251
4.64338 2.51395 42.8298
4.58634 2.51238 42.8343
4.53173 2.49845 42.8148
4.47467 2.49689 42.819
4.29534 2.49346 42.7728
4.23033 2.4932 42.7185
4.17327 2.49165 42.7222
4.11887 2.4777 42.7023
4.06178 2.47614 42.7058
4.00467 2.47458 42.7091
3.82586 2.47123 42.6608
3.7615 2.471 42.6059
3.7044 2.46945 42.6087
3.64728 2.46791 42.6114
3.59013 2.46636 42.614
3.53296 2.46482 42.6164
3.35468 2.46154 42.5657
3.29095 2.46133 42.5103
3.23381 2.4598 42.5122
3.17666 2.45828 42.514
3.11948 2.45675 42.5157
3.06228 2.45523 42.5173
3.00506 2.45371 42.5187
