5.20306 8.68167 42.3039
5.00348 8.62094 42.0521
4.93911 8.61425 42.0032
4.87842 8.57546 41.9094
4.81438 8.56883 41.8608
4.62692 8.51706 41.6705
4.55578 8.50276 41.5656
4.31535 8.45267 41.3855
3.91076 8.40558 41.2262
3.85533 8.40648 41.2329
3.64607 8.42489 41.3691
3.42989 8.47502 41.5481
3.00822 8.55949 41.9747
2.9514 8.56014 41.9794
2.84854 8.57718 42.1037
2.51945 8.64556 42.4064
2.46188 8.64607 42.4099
0.984607 8.96126 43.8704
0.144854 9.1241 44.605
0.0261847 9.14264 44.7341
-1.29538 9.41368 45.9783
-1.56025 9.48041 46.2215
-2.55722 9.67421 47.0999
-2.62111 9.67298 47.0905
-2.90218 9.75317 47.4112
-3.10165 9.77196 47.5348
-3.65564 9.87052 47.9686
-7.35381 10.6331 51.308
-8.09746 10.813 51.9687
7.62125 9.4207 45.6289
7.53492 9.40208 45.5003
7.39047 9.35044 45.3359
7.27996 9.27621 45.0161
6.98386 9.20031 44.6774
6.83198 9.14048 44.4504
6.61217 9.07385 44.1726
6.53143 9.05695 44.0532
6.373 8.98948 43.7677
6.29368 8.97299 43.6507
6.23811 8.94114 43.6148
6.18066 8.94302 43.6271
6.02609 8.87701 43.3475
5.94844 8.86103 43.2331
5.74002 8.79796 42.9705
5.66642 8.74943 42.8116
5.60972 8.75103 42.8224
5.40528 8.68917 42.5645
5.12961 8.61316 42.2012
5.00368 8.5676 42.0578
4.75063 8.5091 41.8175
4.55593 8.44999 41.571
4.50033 8.45111 41.5791
4.43376 8.40548 41.4309
4.3783 8.40654 41.4387
4.31547 8.40009 41.3907
4.23553 8.34014 41.1338
4.17331 8.33379 41.0863
4.06306 8.33569 41.1007
3.91085 8.35311 41.2313
3.85542 8.35399 41.2379
3.42995 8.42194 41.5529
3.16686 8.48814 41.8501
3.00826 8.50565 41.9794
2.51947 8.59094 42.4108
2.46189 8.59143 42.4143
0.984577 8.90404 43.8741
0.144807 9.06554 44.6084
-1.56029 9.41897 46.2244
-1.75146 9.43734 46.3495
-2.55723 9.61117 47.1024
-2.62112 9.60994 47.093
-3.10164 9.70812 47.537
-4.90024 10.0942 49.2097
-8.09707 10.741 51.9693
7.62185 9.36298 45.6365
7.1378 9.20392 44.9138
7.06754 9.16121 44.8077
6.99664 9.1536 44.7532
6.89057 9.08204 44.4432
6.83244 9.08422 44.4573
6.75057 9.06715 44.3362
6.6126 9.01792 44.1794
6.53184 9.00117 44.0599
6.45316 8.95049 43.8919
6.23848 8.8859 43.6213
6.1704 8.87876 43.5694
5.94877 8.80626 43.2394
5.81695 8.75904 43.0896
5.61 8.69675 42.8285
5.5438 8.68989 42.7781
5.33995 8.62843 42.5206
5.20351 8.57436 42.3155
5.00388 8.51425 42.0634
4.94783 8.51552 42.0726
4.7508 8.45602 41.8231
4.62724 8.41125 41.6813
4.55608 8.39721 41.5764
4.37843 8.3539 41.444
4.3156 8.3475 41.396
4.23564 8.2879 41.139
4.17341 8.2816 41.0915
4.06315 8.28345 41.1059
3.91093 8.30063 41.2363
3.8555 8.30148 41.243
3.43 8.36884 41.5578
3.00829 8.4518 41.984
2.95146 8.45241 41.9886
2.84861 8.46902 42.1128
1.15768 8.82907 43.7501
0.262734 8.98892 44.4831
0.144758 9.00698 44.6119
-1.56033 9.35752 46.2272
-1.75149 9.37564 46.3522
-2.08592 9.45178 46.6616
-2.55724 9.54812 47.1049
-2.62114 9.54689 47.0954
-2.90221 9.62597 47.416
-3.10164 9.64427 47.5393
-3.65558 9.74121 47.9728
-5.11142 10.0458 49.3321
-8.09668 10.6691 51.9699
7.62246 9.30525 45.6441
7.05556 9.09471 44.7457
6.97254 9.07749 44.6229
6.75102 9.01102 44.3431
6.69426 8.97865 44.3062
6.61303 8.96197 44.1861
6.45356 8.8949 43.8986
6.37377 8.87863 43.781
6.17076 8.82356 43.5759
6.10277 8.81645 43.5238
6.02677 8.76715 43.3602
5.80735 8.69593 43.0338
5.7406 8.68903 42.9829
5.54407 8.63565 42.7841
5.47797 8.62882 42.7336
5.40579 8.58121 42.5764
5.20373 8.52069 42.3213
5.13004 8.5061 42.2128
4.93968 8.45433 42.0202
4.87538 8.44777 41.971
4.81492 8.40942 41.8774
4.75097 8.40292 41.8286
4.55622 8.34441 41.5818
4.50061 8.34547 41.5899
4.23575 8.23564 41.1442
4.06324 8.23119 41.1111
3.91102 8.24813 41.2414
3.85558 8.24896 41.248
3.69702 8.29727 41.4213
3.64123 8.29805 41.4274
3.11034 8.38155 41.8645
3.00832 8.39794 41.9886
2.95149 8.39853 41.9932
2.51949 8.48167 42.4197
2.46191 8.48212 42.4231
1.15764 8.77207 43.754
0.262674 8.93058 44.4867
0.144706 8.94841 44.6154
0.0260636 8.96626 44.7443
-1.30641 9.25855 45.9667
-1.56038 9.29606 46.2301
-2.08595 9.38953 46.6643
-2.89542 9.5423 47.3912
-3.10163 9.58041 47.5416
-3.45309 9.65852 47.8528
7.62307 9.24751 45.6517
7.53668 9.22937 45.523
7.39217 9.17829 45.3581
7.28158 9.10535 45.038
6.98533 9.03064 44.6987
6.83337 8.97164 44.4712
6.61346 8.90601 44.1929
6.53266 8.88956 44.0734
6.37415 8.82319 43.7876
6.23922 8.77537 43.6343
6.18175 8.77714 43.6465
6.0271 8.7122 43.3666
5.94941 8.69667 43.2521
5.79774 8.63297 42.978
5.7409 8.63454 42.9891
5.61056 8.58813 42.8406
5.40604 8.5272 42.5823
5.13024 8.45255 42.2186
5.06029 8.40625 42.0656
5.00427 8.40749 42.0748
4.94822 8.4087 42.084
4.80695 8.34868 41.8255
4.75113 8.34981 41.8342
4.55636 8.2916 41.5873
4.50075 8.29263 41.5953
4.43416 8.24759 41.4469
4.37869 8.24856 41.4547
4.31584 8.24227 41.4066
4.23586 8.18337 41.1495
4.17361 8.17718 41.102
4.06333 8.17892 41.1162
3.9111 8.19562 41.2465
3.85565 8.19642 41.2531
3.80018 8.19721 41.2596
3.4301 8.26261 41.5675
3.11036 8.32789 41.8692
3.00835 8.34407 41.9933
2.5195 8.42702 42.4241
0.262612 8.87222 44.4903
0.144653 8.88983 44.6189
-1.56042 9.2346 46.233
-1.75155 9.25223 46.3577
-2.42477 9.40304 46.9768
-3.10163 9.51655 47.5439
-3.45308 9.5941 47.855
-4.89996 9.89361 49.2147
7.62368 9.18974 45.6594
7.45168 9.11851 45.3499
7.13935 9.03335 44.9355
7.06906 8.99101 44.8291
6.99812 8.98357 44.7745
6.89199 8.91327 44.4642
6.8219 8.90601 44.4107
6.75191 8.89872 44.357
6.61388 8.85003 44.1998
6.53307 8.83373 44.0802
6.45437 8.78369 43.912
6.37454 8.76772 43.7943
6.23959 8.72008 43.6408
6.17147 8.71311 43.5889
6.10346 8.70611 43.5367
5.94973 8.64184 43.2584
5.87483 8.59359 43.097
5.80795 8.58682 43.0463
5.61083 8.5338 42.8467
5.5446 8.52711 42.7963
5.33159 8.45862 42.4783
5.26043 8.412 42.3233
5.20418 8.41328 42.3329
5.00447 8.35409 42.0806
4.94005 8.34765 42.0315
4.7513 8.29668 41.8397
4.67955 8.28286 41.7338
4.62771 8.25241 41.6978
4.5565 8.23877 41.5927
4.50089 8.23978 41.6008
4.31595 8.18964 41.4119
4.22879 8.12408 41.1
4.1737 8.12495 41.1073
4.06342 8.12664 41.1214
4.00822 8.12746 41.1283
3.91118 8.1431 41.2516
3.43014 8.20947 41.5724
3.11039 8.27422 41.8739
3.00838 8.29018 41.998
2.95154 8.29072 42.0025
2.84565 8.32288 42.149
1.15756 8.65803 43.7618
0.62606 8.74417 44.1919
0.262548 8.81386 44.4938
-1.56047 9.17312 46.2358
-2.08602 9.26499 46.6696
-2.29301 9.3215 46.8466
-2.4248 9.34021 46.9794
-3.45308 9.52967 47.8572
-3.6555 9.54721 47.9791
-4.89987 9.82674 49.2164
-5.11929 9.86585 49.3653
-5.19333 9.88495 49.3771
-8.09549 10.4533 51.9715
7.62428 9.13195 45.667
7.30861 9.01076 45.1933
7.06957 8.93425 44.8363
6.97399 8.90799 44.6442
6.82236 8.84977 44.4177
6.75236 8.84254 44.3639
6.68392 8.80118 44.26
6.61431 8.79402 44.2066
6.45477 8.72806 43.9187
6.37492 8.71224 43.8009
6.17183 8.65786 43.5954
6.02777 8.60225 43.3794
5.80825 8.53225 43.0525
5.74147 8.52552 43.0015
5.54487 8.47281 42.8024
5.40653 8.41915 42.5943
5.2044 8.35956 42.3388
5.13065 8.34539 42.2302
4.94023 8.29429 42.0373
4.81544 8.24988 41.8943
4.55664 8.18594 41.5982
4.0083 8.07513 41.1335
3.91125 8.09056 41.2567
3.80032 8.09205 41.2697
3.7448 8.09276 41.276
3.43018 8.15633 41.5773
3.11041 8.22053 41.8787
3.0084 8.23628 42.0027
2.95156 8.2368 42.0072
2.51951 8.31768 42.433
1.15751 8.601 43.7658
0.741349 8.6694 44.0678
0.626005 8.68634 44.1956
0.262481 8.75549 44.4974
0.0259214 8.78981 44.7546
-1.30663 9.07555 45.9758
-2.08606 9.20271 46.6723
-4.89977 9.75986 49.2181
-5.86785 9.9384 49.9665
7.62489 9.07414 45.6747
7.53845 9.0565 45.5459
7.39386 9.00597 45.3805
7.28321 8.93432 45.0601
7.14037 8.91954 44.9501
6.97447 8.85146 44.6514
6.82282 8.79351 44.4247
6.67269 8.73614 44.2002
6.60324 8.72909 44.1471
6.53389 8.72201 44.0938
6.3753 8.65673 43.8077
6.30679 8.6498 43.7553
6.24032 8.60945 43.654
6.17218 8.60259 43.6019
5.95036 8.53215 43.2712
5.79863 8.46951 42.9968
5.74176 8.47098 43.0078
5.68484 8.47243 43.0186
5.61138 8.42509 42.859
5.55459 8.42647 42.8695
5.40677 8.3651 42.6003
5.33205 8.35081 42.4903
5.13086 8.29179 42.2361
5.07465 8.29298 42.2454
5.00485 8.24724 42.0921
4.94878 8.24836 42.1011
4.75162 8.19039 41.851
4.50115 8.13403 41.6117
4.4304 8.1207 41.5069
4.37906 8.09046 41.4708
4.30883 8.07731 41.3669
4.23616 8.02649 41.1654
4.17389 8.02044 41.1178
4.11875 8.02124 41.1249
4.06358 8.02203 41.1319
4.00837 8.0228 41.1387
3.91133 8.03801 41.2619
3.11621 8.13495 41.8389
3.00843 8.18237 42.0074
2.72831 8.23158 42.1888
1.15747 8.54395 43.7697
1.09776 8.54394 43.7698
0.741284 8.61179 44.0716
0.262411 8.6971 44.501
-1.43329 9.03233 46.1101
-1.56057 9.05015 46.2416
-1.76376 9.10538 46.4186
-2.29312 9.1963 46.8519
-5.19317 9.75056 49.3805
-5.8677 9.87013 49.9679
-5.9338 9.86758 49.949
7.39443 8.94849 45.388
7.28375 8.87727 45.0675
7.14128 8.84525 44.9313
7.07058 8.82065 44.8507
6.89341 8.74433 44.4854
6.82328 8.73724 44.4318
6.75325 8.73012 44.3779
6.60366 8.67315 44.154
6.5343 8.66613 44.1007
6.45556 8.61674 43.9322
6.37569 8.60122 43.8144
6.24069 8.55411 43.6606
6.17253 8.5473 43.6085
5.95068 8.47728 43.2776
5.87576 8.42965 43.116
5.80885 8.42305 43.0651
5.61165 8.37071 42.8652
5.54539 8.36418 42.8146
5.33228 8.29689 42.4963
5.2611 8.25087 42.341
5.20483 8.25207 42.3506
5.00504 8.19379 42.0979
4.94059 8.18752 42.0488
4.75178 8.13722 41.8566
4.67999 8.1238 41.7506
4.62816 8.09345 41.7143
4.55691 8.08021 41.6093
4.30894 8.02471 41.3723
4.22908 7.96738 41.1159
4.17397 7.96817 41.1231
4.11883 7.96894 41.1302
4.06366 7.9697 41.1372
4.00845 7.97044 41.144
3.9114 7.98545 41.267
2.84874 8.14423 42.1404
2.7283 8.17731 42.1934
2.51951 8.20829 42.442
1.15741 8.4869 43.7737
0.741216 8.55417 44.0754
0.440189 8.62228 44.3783
0.262339 8.63871 44.5047
0.0128616 8.69045 44.677
-1.30679 8.9535 45.9819
-1.56062 8.98865 46.2445
-2.08614 9.07813 46.6777
-2.29318 9.1337 46.8546
-3.74397 9.41408 48.1878
-5.12731 9.68561 49.399
-5.1931 9.68336 49.3822
-5.86755 9.80185 49.9693
-5.93365 9.79931 49.9504
7.62611 8.95847 45.6902
7.45398 8.88881 45.3801
7.31027 8.83901 45.2155
7.22559 8.8223 45.0899
7.07108 8.76382 44.858
6.82373 8.68095 44.4389
6.75369 8.67389 44.385
6.68524 8.6329 44.2808
6.61559 8.62592 44.2272
6.45596 8.56105 43.939
6.37607 8.54568 43.8211
6.17288 8.492 43.6151
6.02877 8.4372 43.3987
5.80914 8.36843 43.0715
5.74233 8.36186 43.0204
5.53618 8.30205 42.7598
5.46378 8.25571 42.6024
5.40726 8.25696 42.6124
5.20504 8.1983 42.3565
5.13126 8.18455 42.2479
4.94077 8.13411 42.0545
4.87642 8.12787 42.0052
4.80778 8.08304 41.8538
4.75193 8.08403 41.8623
4.55704 8.02733 41.6148
4.5014 8.02822 41.6227
4.22917 7.91512 41.1213
4.17406 7.91588 41.1285
4.11891 7.91663 41.1355
4.06373 7.91736 41.1424
4.00852 7.91808 41.1492
3.91147 7.93287 41.2722
3.8005 7.9342 41.285
3.74001 7.96576 41.3344
1.15736 8.42983 43.7776
1.09765 8.42978 43.7776
0.855804 8.48029 43.9519
0.741146 8.49654 44.0792
0.262265 8.58031 44.5083
0.0143705 8.64044 44.7478
-1.30687 8.89246 45.985
-3.94834 9.36578 48.3115
7.62672 8.9006 45.6979
7.54033 8.86582 45.5421
7.28483 8.76311 45.0824
6.97592 8.68175 44.6731
6.89435 8.63161 44.4997
6.82419 8.62464 44.446
6.67399 8.56809 44.221
6.6045 8.56121 44.1679
6.53512 8.55431 44.1145
6.45636 8.50535 43.9458
6.37645 8.49013 43.8279
6.24141 8.44337 43.6738
6.1839 8.44493 43.6858
6.0291 8.38215 43.4052
5.95131 8.36749 43.2905
5.7995 8.30591 43.0158
5.74261 8.30727 43.0267
5.61219 8.2619 42.8776
5.4075 8.20286 42.6185
5.13145 8.1309 42.2538
5.06146 8.0858 42.1004
5.00542 8.08685 42.1095
4.80794 8.02987 41.8595
4.75209 8.03083 41.8679
4.55717 7.97443 41.6204
4.50153 7.97529 41.6282
4.43074 7.96237 41.5234
4.37941 7.93223 41.487
4.30914 7.91948 41.3831
4.22926 7.86285 41.1267
4.17414 7.86358 41.1338
4.11899 7.8643 41.1408
4.0638 7.865 41.1477
4.00858 7.86569 41.1545
3.91154 7.88028 41.2774
0.855725 8.42287 43.9558
0.741074 8.4389 44.0831
0.262188 8.52189 44.5119
-1.56073 8.86563 46.2503
-2.2933 9.00846 46.8601
-3.74396 9.28404 48.1921
-4.31027 9.37634 48.6253
-4.53337 9.43426 48.8018
-5.86725 9.66528 49.972
7.62733 8.84271 45.7057
7.39612 8.77594 45.4107
7.14243 8.6917 44.9796
7.05957 8.64112 44.8035
6.89482 8.57522 44.5068
6.82465 8.56831 44.4531
6.75458 8.56136 44.3991
6.60492 8.50522 44.1748
6.53552 8.49837 44.1214
6.45676 8.44963 43.9526
6.37683 8.43456 43.8347
6.24178 8.38798 43.6805
6.17359 8.38134 43.6283
5.95162 8.31256 43.297
5.87668 8.26556 43.1352
5.80973 8.25913 43.0842
5.61246 8.20748 42.8838
5.53669 8.19349 42.7722
5.33295 8.13502 42.5144
5.26176 8.08961 42.359
5.19665 8.08343 42.3094
4.94112 8.02725 42.0661
4.87674 8.02112 42.0168
4.75224 7.97761 41.8736
4.68041 7.9646 41.7676
4.62463 7.96549 41.7757
4.5573 7.92152 41.6259
4.50165 7.92235 41.6338
4.17422 7.81127 41.1392
4.11907 7.81196 41.1462
4.06388 7.81263 41.153
2.34953 8.09189 42.6292
2.11991 8.14022 42.8052
1.15725 8.31566 43.7856
0.740999 8.38124 44.0869
0.0141898 8.52276 44.7549
-1.30703 8.77036 45.9912
-2.09887 8.92967 46.7391
-4.31023 9.31051 48.6273
-5.11869 9.46281 49.3751
-5.71801 9.57813 49.8366
7.62794 8.7848 45.7135
7.45571 8.71632 45.403
7.37027 8.69985 45.2761
7.28592 8.64888 45.0974
7.22719 8.65085 45.1122
7.06007 8.58434 44.8108
6.97688 8.56851 44.6876
6.8251 8.51196 44.4602
6.75502 8.50507 44.4062
6.69825 8.47295 44.3684
6.61686 8.45765 44.2481
6.44597 8.38564 43.8943
6.3772 8.37897 43.8415
6.17393 8.32599 43.635
6.02976 8.27199 43.4183
5.81002 8.20445 43.0906
5.74317 8.19805 43.0394
5.53694 8.13919 42.7784
5.46451 8.09346 42.6208
5.40797 8.09461 42.6307
5.19685 8.0297 42.3154
5.13184 8.02356 42.2657
4.94129 7.97379 42.072
4.8769 7.96771 42.0226
4.80825 7.92348 41.8709
4.75239 7.92438 41.8793
4.55743 7.86859 41.6315
4.22942 7.75825 41.1375
4.1743 7.75893 41.1445
4.11914 7.7596 41.1515
4.06394 7.76025 41.1583
4.00871 7.76089 41.1651
3.91166 7.77505 41.2878
3.80067 7.77622 41.3005
3.74013 7.80753 41.35
2.11986 8.08485 42.8096
0.915548 8.30817 43.9643
0.855559 8.308 43.9636
0.740921 8.32358 44.0908
0.0140958 8.4639 44.7585
-1.30712 8.7093 45.9943
-2.29342 8.88318 46.8655
-3.96335 9.21067 48.3736
-4.02837 9.20889 48.36
-4.53334 9.30195 48.8058
-5.50359 9.49387 49.7194
7.62855 8.72688 45.7213
7.54211 8.69269 45.5653
7.28646 8.59173 45.1049
7.22772 8.59367 45.1197
7.06057 8.52754 44.8181
6.97736 8.51187 44.6949
6.89576 8.46239 44.5212
6.82556 8.45559 44.4674
6.67528 8.39988 44.2421
6.60575 8.39317 44.1888
6.53633 8.38644 44.1353
6.43518 8.32182 43.836
6.37758 8.32336 43.8483
6.29806 8.30866 43.7309
6.2425 8.27714 43.6939
6.17428 8.27062 43.6417
6.03009 8.21689 43.4248
5.95224 8.20267 43.3101
5.80036 8.14215 43.035
5.74345 8.14341 43.0458
5.66706 8.12952 42.9331
5.61299 8.09857 42.8963
5.53719 8.08487 42.7846
5.40821 8.04047 42.6368
5.33339 8.02702 42.5266
5.18823 7.96884 42.2624
5.13203 7.96986 42.2717
5.05858 7.95672 42.1634
5.00596 7.92633 42.1271
4.94146 7.92032 42.0778
4.75254 7.87113 41.8851
4.68068 7.85839 41.779
4.4866 7.80314 41.5324
4.43105 7.8039 41.5401
4.3776 7.78925 41.5255
4.30943 7.76151 41.3995
4.22951 7.70593 41.1429
4.17438 7.70659 41.15
4.11921 7.70723 41.1569
4.00877 7.70846 41.1704
3.91172 7.72242 41.2931
2.34947 7.98177 42.6382
2.29156 7.98197 42.641
2.11981 8.02946 42.8141
1.72864 8.10728 43.2388
1.15712 8.20144 43.7936
0.915465 8.25073 43.9683
0.740841 8.2659 44.0947
0.439768 8.33136 44.397
0.0123682 8.39672 44.6951
-1.30721 8.64822 45.9974
-1.43371 8.66462 46.1281
-1.57285 8.71872 46.3117
-2.09902 8.80487 46.7447
-2.29349 8.82053 46.8682
-4.31017 9.17881 48.6312
-4.53333 9.23579 48.8078
-5.48626 9.38352 49.6627
-5.71777 9.44204 49.8395
-5.8756 9.48186 50.0053
7.287 8.53457 45.1125
7.22825 8.53646 45.1272
7.14437 8.50346 44.9756
7.06107 8.47071 44.8255
6.89623 8.40595 44.5285
6.82601 8.39921 44.4746
6.59464 8.32887 44.1295
6.44675 8.2743 43.908
6.24286 8.22169 43.7006
6.17463 8.21523 43.6484
5.95255 8.14769 43.3166
5.87758 8.10132 43.1545
5.8106 8.09505 43.1034
5.61325 8.04409 42.9026
5.53743 8.03053 42.7909
5.33361 7.973 42.5328
5.2624 7.9282 42.3771
5.19726 7.92219 42.3275
5.00614 7.87279 42.133
4.94163 7.86683 42.0837
4.68081 7.80526 41.7847
4.6133 7.76192 41.6349
4.55767 7.76268 41.6428
4.30952 7.70882 41.405
4.17445 7.65422 41.1554
4.11928 7.65484 41.1623
4.00883 7.65602 41.1757
2.34943 7.92669 42.6428
1.84528 8.00328 43.0707
0.740758 8.20822 44.0986
0.439676 8.27314 44.4008
0.0139004 8.34616 44.7658
-1.3073 8.58714 46.0005
-1.43379 8.6033 46.1312
-2.09911 8.74245 46.7476
-4.31013 9.11296 48.6332
7.62976 8.61096 45.7371
7.45743 8.54366 45.4261
7.37218 8.51039 45.2723
7.28754 8.47738 45.12
7.22878 8.47924 45.1347
7.06157 8.41387 44.8329
6.97832 8.39852 44.7096
6.82647 8.3428 44.4818
6.75635 8.33609 44.4277
6.68786 8.29585 44.3229
6.44714 8.2186 43.9149
6.37833 8.21209 43.8621
6.16429 8.15203 43.591
6.03074 8.10663 43.438
5.81089 8.04032 43.1099
5.74401 8.03409 43.0586
5.53768 7.97618 42.7972
5.46523 7.93107 42.6393
5.18862 7.86147 42.2745
5.13241 7.86242 42.2837
5.07616 7.86336 42.2928
4.93339 7.80655 42.0315
4.87738 7.80741 42.0401
4.80871 7.76378 41.8883
4.74477 7.75796 41.8395
4.48681 7.69747 41.5437
4.43125 7.69818 41.5513
4.17452 7.60185 41.1608
4.11934 7.60243 41.1677
4.00889 7.60356 41.1811
3.79585 7.64866 41.3596
3.73369 7.64286 41.3105
2.3494 7.8716 42.6474
2.1197 7.91865 42.8231
1.95368 7.93308 42.95
1.20996 8.07229 43.6752
0.85529 8.13561 43.9755
0.740672 8.15052 44.1025
0.439581 8.21491 44.4046
0.013799 8.28727 44.7694
-4.5333 9.10344 48.8117
7.63037 8.55297 45.745
7.54402 8.50197 45.5616
7.28808 8.42018 45.1276
7.22931 8.42199 45.1422
7.06207 8.35701 44.8403
6.97933 8.32488 44.6909
6.89716 8.29301 44.543
6.82692 8.28638 44.489
6.67657 8.2315 44.2633
6.59546 8.2169 44.1436
6.53754 8.2184 44.1563
6.44753 8.16288 43.9219
6.37871 8.15643 43.869
6.24357 8.11075 43.7142
6.16463 8.0967 43.5977
6.03106 8.05148 43.4446
5.95317 8.03769 43.3298
5.80121 7.97824 43.0544
5.74428 7.9794 43.065
5.66784 7.96594 42.9523
5.61377 7.93508 42.9153
5.53792 7.92181 42.8035
5.3905 7.8639 42.5355
5.33404 7.86491 42.5451
5.18881 7.80775 42.2806
5.1326 7.80868 42.2898
5.06772 7.80277 42.2401
5.00649 7.76566 42.1448
4.93355 7.75311 42.0375
4.74491 7.70474 41.8452
4.68107 7.69896 41.7962
4.48692 7.64461 41.5493
4.43135 7.64529 41.5569
4.38005 7.61535 41.5201
4.30969 7.6034 41.416
4.17459 7.54945 41.1663
4.11941 7.55002 41.1731
4.00894 7.55109 41.1864
3.89833 7.55212 41.1993
2.34936 7.81649 42.6519
2.29144 7.81663 42.6546
2.11964 7.86322 42.8276
1.95362 7.87741 42.9545
1.20652 8.00797 43.6164
0.439484 8.15667 44.4085
0.0136952 8.22837 44.7731
-1.30749 8.46494 46.0068
-4.31007 8.98123 48.6372
-4.53328 9.03725 48.8137
-7.21152 9.5275 51.2416
-7.2783 9.5245 51.2186
-7.6128 9.6061 51.5575
-7.95134 9.68869 51.8985
7.28862 8.36295 45.1353
7.22984 8.36472 45.1498
7.14633 8.31524 44.9716
7.06257 8.30013 44.8477
6.89763 8.23651 44.5503
6.82737 8.22994 44.4963
6.59587 8.16089 44.1507
6.51686 8.1135 43.9816
6.44792 8.10714 43.9288
6.24393 8.05525 43.721
6.16497 8.04135 43.6045
6.01064 7.98145 43.3253
5.95347 7.98266 43.3364
5.87848 7.93692 43.174
5.81146 7.93082 43.1229
5.61403 7.88055 42.9216
5.53816 7.86742 42.8098
5.39072 7.80986 42.5417
5.33425 7.81083 42.5513
5.2614 7.78233 42.4184
5.19785 7.76079 42.3457
5.13278 7.75492 42.2958
5.00666 7.71207 42.1508
4.9337 7.69966 42.0434
4.87768 7.70047 42.0519
4.73697 7.64505 41.7939
4.68119 7.64578 41.802
4.61366 7.60303 41.652
4.55802 7.60371 41.6598
4.48702 7.59174 41.555
4.17465 7.49705 41.1717
4.11947 7.49758 41.1786
4.00899 7.49861 41.1918
2.29139 7.76149 42.6592
1.95356 7.82174 42.9589
1.84511 7.83564 43.0837
1.32183 7.94412 43.5573
1.20643 7.95111 43.6206
0.0119292 8.16155 44.7098
-1.30759 8.40383 46.0099
-4.53327 8.97106 48.8157
-6.10017 9.24484 50.158
-7.61249 9.53494 51.5584
7.37412 8.32096 45.2686
7.28916 8.30571 45.1429
7.05061 8.23498 44.7866
6.82782 8.17347 44.5036
6.75766 8.16693 44.4493
6.67743 8.11915 44.2776
6.4483 8.05138 43.9358
6.37945 8.04505 43.8829
6.1653 7.98597 43.6113
6.01095 7.92644 43.3319
5.81174 7.87604 43.1294
5.74483 7.86997 43.078
5.5384 7.81302 42.8162
5.46594 7.76852 42.6581
5.39093 7.7558 42.5479
5.19804 7.70696 42.3518
5.13296 7.70114 42.3019
4.93386 7.64619 42.0494
4.87783 7.64697 42.0579
4.80914 7.60393 41.9058
4.48711 7.53885 41.5607
4.43153 7.53947 41.5682
4.17472 7.44462 41.1772
4.11952 7.44513 41.184
4.00904 7.44611 41.1972
3.95374 7.44657 41.2037
3.89841 7.44703 41.21
3.73374 7.4846 41.3263
1.32174 7.88737 43.5616
1.2097 7.90142 43.6876
-6.7456 9.33278 50.8276
7.60471 8.36134 45.6241
7.5458 8.32857 45.5851
7.2897 8.24844 45.1506
7.2309 8.25013 45.165
7.0511 8.17815 44.7941
6.95567 8.15536 44.6028
6.89856 8.12344 44.5649
6.82828 8.11699 44.5109
6.67785 8.06295 44.2847
6.59669 8.04881 44.1649
6.43747 7.98801 43.8777
6.37982 7.98933 43.8898
6.3002 7.97553 43.7722
6.24463 7.94419 43.7346
6.16564 7.93059 43.6181
6.01126 7.87141 43.3386
5.95408 7.87256 43.3497
5.7451 7.81523 43.0845
5.6686 7.8022 42.9716
5.61454 7.77144 42.9344
5.53864 7.75859 42.8226
5.39115 7.70172 42.5542
5.3256 7.69592 42.5041
5.13315 7.64734 42.308
5.06823 7.6416 42.2583
4.93401 7.5927 42.0553
4.73723 7.5387 41.8056
4.68144 7.53938 41.8136
4.48721 7.48594 41.5664
4.43162 7.48654 41.5739
4.30775 7.4603 41.4546
4.17478 7.39218 41.1827
4.11958 7.39267 41.1895
4.00908 7.39359 41.2027
2.29129 7.65117 42.6684
1.32164 7.83061 43.5658
1.20625 7.83735 43.6289
-0.046178 8.05879 44.848
-1.30779 8.28158 46.0162
-4.32575 8.82418 48.7
-6.35425 9.18742 50.5144
-6.9664 9.2777 50.945
-7.29714 9.35697 51.2819
7.54639 8.27073 45.593
7.46029 8.25548 45.4651
7.29023 8.19115 45.1583
7.23143 8.1928 45.1727
7.14745 8.16096 45.0207
7.06406 8.12937 44.8702
6.89902 8.06688 44.5723
6.82873 8.06049 44.5182
6.59709 7.99274 44.1721
6.51721 7.96241 44.0277
6.44907 7.93981 43.9499
6.24499 7.88863 43.7415
6.16597 7.87518 43.6249
6.01157 7.81636 43.3453
5.95438 7.81747 43.3564
5.8781 7.78835 43.2178
5.81231 7.76643 43.1425
5.74536 7.76047 43.091
5.6148 7.71685 42.9408
5.53888 7.70415 42.8289
5.39136 7.64763 42.5605
5.32581 7.64188 42.5104
5.26036 7.63611 42.4601
5.19842 7.59924 42.3641
5.13332 7.59353 42.3142
4.93416 7.5392 42.0613
4.87812 7.53992 42.0698
4.73735 7.48551 41.8115
4.68155 7.48616 41.8195
4.61401 7.44399 41.6693
4.55835 7.44459 41.677
4.4873 7.43302 41.5722
4.43171 7.43359 41.5796
4.1126 7.33439 41.1405
3.73377 7.37902 41.337
1.77872 7.70052 43.1452
1.43292 7.76023 43.4444
1.20952 7.78745 43.6959
-0.237479 8.04866 45.0267
-4.82323 8.82546 48.9816
-6.11776 9.08148 50.2209
-6.96618 9.20764 50.9461
-7.61156 9.32143 51.5607
-7.68848 9.34059 51.5668
7.63342 8.2627 45.7848
7.46087 8.19778 45.4729
7.37552 8.16569 45.3187
7.29077 8.13384 45.166
7.12308 8.07088 44.8638
7.05208 8.06445 44.8091
6.82918 8.00397 44.5256
6.75967 7.98099 44.4454
6.6787 7.95048 44.2991
6.51844 7.89014 44.0098
6.44945 7.884 43.9569
6.38056 7.87784 43.9038
6.16631 7.81975 43.6318
6.08996 7.77432 43.4669
6.01188 7.76129 43.3521
5.81259 7.71159 43.1491
5.74563 7.70569 43.0976
5.59584 7.64877 42.8254
5.53912 7.64969 42.8354
5.46511 7.62151 42.7005
5.39157 7.59352 42.5668
5.33509 7.59437 42.5763
5.18975 7.53893 42.3113
5.1335 7.5397 42.3203
5.07721 7.54046 42.3292
4.93431 7.48568 42.0674
4.87826 7.48637 42.0758
4.80765 7.45924 41.946
4.73747 7.43229 41.8174
4.68167 7.43291 41.8254
4.48739 7.38008 41.5779
4.43179 7.38063 41.5853
4.17489 7.28726 41.1938
4.11264 7.28197 41.1461
4.00916 7.28851 41.2136
3.95385 7.2889 41.2199
3.89607 7.30427 41.2477
3.73378 7.3262 41.3423
1.61024 7.65758 43.2758
1.43281 7.70367 43.4487
-0.237607 7.98929 45.0304
-0.551994 8.05257 45.3341
-0.736417 8.06616 45.4585
-2.16324 8.30414 46.7591
-2.37078 8.35575 46.935
-3.74996 8.58909 48.1128
-6.74508 9.12332 50.8313
7.54758 8.15499 45.6088
7.35007 8.07493 45.1592
7.29131 8.07652 45.1737
7.23248 8.07809 45.188
7.05257 8.00756 44.8166
6.98276 7.96772 44.7093
6.89995 7.9537 44.5871
6.84165 7.9551 44.6004
6.67913 7.89422 44.3064
6.5979 7.88054 44.1865
6.43861 7.82085 43.8988
6.38093 7.82206 43.9109
6.24569 7.77746 43.7553
6.01218 7.70621 43.3588
5.95498 7.70725 43.3698
5.80287 7.64993 43.0938
5.7459 7.65089 43.1042
5.67214 7.60672 42.9436
5.60569 7.60098 42.8928
5.53935 7.59522 42.8418
5.39178 7.53939 42.5731
5.32621 7.53375 42.523
5.13367 7.48585 42.3265
5.06873 7.48027 42.2766
5.00749 7.44386 42.1809
4.93446 7.43214 42.0734
4.73759 7.37906 41.8233
4.68178 7.37966 41.8312
4.48748 7.32713 41.5837
4.43188 7.32764 41.591
4.31016 7.28676 41.4496
4.17494 7.23477 41.1994
4.11268 7.22953 41.1516
2.29112 7.48559 42.6823
1.61014 7.60131 43.2802
1.20594 7.66661 43.6415
-0.237737 7.9299 45.034
-0.29919 7.92928 45.0303
-0.736545 8.006 45.4619
-1.05738 8.06956 45.7663
-1.57221 8.1473 46.1947
-3.95378 8.53784 48.235
-6.3348 8.95796 50.3404
-6.96575 9.06749 50.9483
7.29185 8.01917 45.1815
7.23301 8.0207 45.1958
7.14942 7.97259 45.017
7.06554 7.95842 44.8928
6.90041 7.89708 44.5945
6.83007 7.89086 44.5403
6.59831 7.82441 44.1937
6.51923 7.77834 44.024
6.45021 7.77231 43.9711
6.3813 7.76627 43.9179
6.24604 7.72185 43.7622
6.16697 7.70884 43.6456
6.01249 7.6511 43.3656
5.94504 7.64527 43.3139
5.87896 7.62353 43.2378
5.81314 7.60187 43.1623
5.74616 7.59608 43.1108
5.59632 7.53986 42.8384
5.53958 7.54072 42.8483
5.3264 7.47965 42.5293
5.26092 7.47405 42.4789
5.19898 7.43753 42.3827
5.13385 7.43199 42.3326
4.9346 7.37859 42.0795
4.87854 7.37922 42.0878
4.68189 7.32638 41.8372
4.61027 7.31505 41.7313
4.48756 7.27416 41.5895
3.73378 7.22052 41.3531
1.77844 7.53239 43.1587
1.20923 7.61639 43.7085
-0.23787 7.8705 45.0377
-0.299325 7.86987 45.034
-0.55227 7.93271 45.3412
-1.05752 8.00885 45.7697
-1.57233 8.08581 46.1979
-1.84068 8.15142 46.5113
-2.371 8.23013 46.9408
-2.43467 8.22888 46.9314
-3.75009 8.45921 48.1175
-3.95382 8.47265 48.2372
-6.11748 8.87526 50.2255
-6.74472 8.98365 50.8338
7.43587 8.00845 45.3546
7.37746 7.97609 45.3153
7.29239 7.9618 45.1893
7.13726 7.9077 44.9556
7.05355 7.89373 44.8318
6.90087 7.84044 44.602
6.83052 7.83428 44.5477
6.76098 7.81159 44.4674
6.67997 7.78164 44.3209
6.45059 7.71644 43.9782
6.38166 7.71045 43.925
6.1673 7.65336 43.6525
6.09093 7.60857 43.4873
6.01279 7.59598 43.3724
5.81341 7.54698 43.169
5.74642 7.54125 43.1174
5.59656 7.48538 42.8449
5.53981 7.48621 42.8547
5.46577 7.45855 42.7197
5.3922 7.43108 42.5859
5.33569 7.43183 42.5952
5.19028 7.37742 42.33
5.13402 7.37811 42.3389
5.06905 7.37263 42.289
4.87868 7.32562 42.0938
4.80611 7.31421 41.9866
4.73782 7.27255 41.8352
4.682 7.27309 41.8431
4.48764 7.22117 41.5953
4.17504 7.12975 41.2106
4.11276 7.12461 41.1628
3.95394 7.13108 41.2363
3.89858 7.13138 41.2424
3.73378 7.16766 41.3585
2.00255 7.41917 42.8682
1.60995 7.48871 43.289
-0.238005 7.81109 45.0414
-0.299463 7.81044 45.0376
-0.933339 7.93432 45.6437
-1.05766 7.94813 45.773
-2.03344 8.10246 46.637
-2.37112 8.16731 46.9437
-3.75016 8.39426 48.1199
-4.82324 8.55931 48.9895
-6.33454 8.81998 50.3432
-6.74453 8.91381 50.835
7.60854 7.97964 45.6177
7.54935 7.98121 45.6327
7.37802 7.91854 45.3231
7.29292 7.9044 45.1971
7.12509 7.84298 44.8943
7.05404 7.83679 44.8394
6.9842 7.79733 44.7318
6.90134 7.78378 44.6095
6.843 7.78506 44.6226
6.68039 7.72532 44.3282
6.59911 7.71209 44.2082
6.45097 7.66055 43.9853
6.38203 7.65462 43.9321
6.31428 7.63252 43.8538
6.24673 7.61056 43.7761
6.01309 7.54083 43.3793
5.94561 7.53511 43.3275
5.80368 7.48552 43.1137
5.74668 7.4864 43.124
5.6715 7.45854 42.9871
5.59679 7.43088 42.8514
5.54004 7.43168 42.8612
5.3924 7.37689 42.5923
5.32679 7.37141 42.542
5.13418 7.32421 42.3451
5.06921 7.31879 42.2952
5.00615 7.29804 42.2222
4.93488 7.27143 42.0916
4.87881 7.272 42.0999
4.73793 7.21927 41.8412
4.68211 7.21978 41.849
4.48772 7.16816 41.6011
4.36147 7.15773 41.5037
4.30592 7.15814 41.5107
4.17508 7.07721 41.2162
4.1128 7.07213 41.1684
2.28744 7.33577 42.7195
1.60985 7.43239 43.2934
1.20561 7.49575 43.6543
-0.238143 7.75167 45.0451
-0.299603 7.75101 45.0413
-0.552555 7.81281 45.3484
-1.05779 7.8874 45.7764
-2.4349 8.10322 46.9372
-3.75022 8.3293 48.1223
-3.95391 8.34226 48.2418
-4.31478 8.40965 48.5497
-4.82324 8.49275 48.9915
-6.11729 8.73775 50.2285
-6.3344 8.75099 50.3446
-6.96508 8.85724 50.9515
7.60915 7.92171 45.6257
7.54995 7.92324 45.6408
7.46373 7.90896 45.5126
7.35226 7.84556 45.1906
7.29346 7.84699 45.2049
7.20923 7.81635 45.0527
7.13828 7.79347 44.971
7.06702 7.78729 44.9157
6.96007 7.72583 44.6038
6.9018 7.7271 44.617
6.83141 7.72105 44.5627
6.66913 7.66186 44.2693
6.59951 7.6559 44.2155
6.52041 7.61049 44.0456
6.45134 7.60464 43.9925
6.30466 7.55388 43.7716
6.23625 7.54812 43.7191
6.16795 7.54233 43.6664
6.01339 7.48567 43.3861
5.9459 7.48001 43.3343
5.88108 7.44275 43.2338
5.81396 7.43714 43.1824
5.59703 7.37636 42.858
5.54027 7.37713 42.8677
5.32698 7.31727 42.5484
5.26147 7.31183 42.4979
5.19952 7.27567 42.4015
5.13435 7.27029 42.3513
4.93502 7.21782 42.0978
4.87894 7.21837 42.106
4.73804 7.16597 41.8472
4.68221 7.16645 41.855
4.4878 7.11514 41.6069
3.74036 7.06733 41.4245
2.00236 7.30798 42.8774
1.8944 7.3199 43.0011
1.20891 7.44522 43.7213
-0.238284 7.69224 45.0488
-0.299746 7.69156 45.045
-0.420515 7.70454 45.1728
-0.552701 7.75284 45.352
-1.05794 7.82665 45.7798
-2.50321 8.05554 47.0807
-3.75029 8.26433 48.1247
-3.88911 8.27877 48.2576
-3.95396 8.27705 48.2441
-4.31481 8.34389 48.5519
-4.82324 8.42619 48.9935
-6.11719 8.66899 50.23
56.912 52.7391 286.247
7.37913 7.80337 45.3389
7.29399 7.78955 45.2128
7.13878 7.73632 44.9787
7.04251 7.71546 44.7862
6.90226 7.67039 44.6245
6.83186 7.66441 44.5702
6.76301 7.62559 44.4636
6.66955 7.60559 44.2767
6.45172 7.5487 43.9997
6.38275 7.54289 43.9464
6.16828 7.48679 43.6734
6.09188 7.44264 43.508
6.01369 7.43049 43.393
5.81423 7.3822 43.1891
5.7472 7.37663 43.1374
5.53101 7.31638 42.8137
5.46487 7.31091 42.7627
5.39281 7.26847 42.6051
5.33628 7.26914 42.6144
5.13451 7.21635 42.3576
5.06951 7.21104 42.3076
4.87907 7.16471 42.1121
4.80646 7.15371 42.0047
4.73815 7.11265 41.8532
4.68231 7.1131 41.861
4.48788 7.0621 41.6128
4.36158 7.05188 41.5153
4.11286 6.96711 41.1796
3.94914 7.00272 41.2963
3.89369 7.00296 41.3024
3.73377 7.00898 41.3749
-0.118504 7.62002 44.9247
-0.933799 7.75278 45.6542
-1.05808 7.7659 45.7832
-3.75036 8.19935 48.1272
-4.31485 8.27812 48.5541
-4.82324 8.35962 48.9955
-6.26786 8.61548 50.3678
7.61035 7.80579 45.642
7.55113 7.80724 45.6569
7.37969 7.74575 45.3468
7.29453 7.7321 45.2207
7.12659 7.67184 44.9175
7.04299 7.65854 44.7939
6.98564 7.62676 44.7545
6.90271 7.61367 44.6321
6.84435 7.61484 44.6451
6.73972 7.55513 44.3378
6.66996 7.5493 44.2841
6.60031 7.54346 44.2302
6.45209 7.49275 44.0069
6.38311 7.48699 43.9536
6.30434 7.45854 43.8107
6.23693 7.4369 43.7332
6.1686 7.43122 43.6804
6.01399 7.37529 43.3999
5.94647 7.36974 43.348
5.74745 7.32173 43.1441
5.67081 7.30999 43.031
5.59749 7.26727 42.8712
5.54071 7.26797 42.8809
5.39301 7.21423 42.6116
5.32736 7.20892 42.5612
5.13468 7.1624 42.3639
5.06967 7.15714 42.3139
5.00659 7.13666 42.2407
4.93529 7.11055 42.1101
4.8792 7.11104 42.1182
4.73826 7.05931 41.8593
4.61071 7.04909 41.761
4.36163 6.99893 41.5211
4.30607 6.99926 41.528
4.24317 6.9942 41.4792
4.11288 6.91458 41.1853
3.74035 6.96133 41.4355
2.2837 7.18562 42.757
1.19767 7.33491 43.6282
-0.0573547 7.56143 44.9319
-0.118659 7.56079 44.9285
-1.05822 7.70513 45.7867
-1.12061 7.70423 45.7807
-2.58064 7.96567 47.1306
-3.75043 8.13436 48.1296
-3.8892 8.14833 48.2622
-3.96168 8.16623 48.2766
-6.11698 8.53145 50.2331
-6.26773 8.54646 50.3692
-6.33399 8.54396 50.3488
-6.72337 8.61389 50.6595
-6.98391 8.68998 51.0155
7.61095 7.74779 45.6501
7.46544 7.73541 45.5367
7.38025 7.68811 45.3548
7.29506 7.67462 45.2286
7.21078 7.64457 45.0762
7.1271 7.61475 44.9252
6.9738 7.56281 44.6943
6.90317 7.55692 44.6397
6.83275 7.55105 44.5852
6.67037 7.493 44.2915
6.52157 7.44246 44.0673
6.45247 7.43678 44.0142
6.23726 7.38126 43.7403
6.16893 7.37564 43.6874
6.01428 7.32007 43.4068
5.94675 7.31458 43.3549
5.88063 7.29337 43.2784
5.81476 7.27225 43.2026
5.74771 7.2668 43.1508
5.59772 7.2127 42.8778
5.53145 7.20736 42.8269
5.32754 7.15472 42.5677
5.26199 7.14944 42.5171
5.20003 7.11364 42.4204
5.13484 7.10843 42.3702
4.93542 7.05689 42.1162
4.87099 7.05177 42.0667
4.61079 6.99584 41.767
4.54362 6.95563 41.6173
4.48802 6.95597 41.6246
3.83821 6.89758 41.3194
3.73374 6.90311 41.3858
2.06034 7.14127 42.8897
-0.118816 7.50154 44.9323
-0.934117 7.6317 45.6612
-1.12075 7.64344 45.7841
-3.05997 7.97934 47.572
-3.19539 7.99291 47.7041
-3.7505 8.06936 48.132
-3.88924 8.08309 48.2646
-4.24984 8.14838 48.5731
-4.31492 8.14655 48.5584
-6.11688 8.46267 50.2346
-6.7232 8.5443 50.6608
7.3808 7.63045 45.3628
7.12759 7.55763 44.933
6.90363 7.50016 44.6473
6.83319 7.49435 44.5928
6.75244 7.44915 44.4193
6.68248 7.4434 44.3651
6.52195 7.3864 44.0746
6.45284 7.38078 44.0214
6.38383 7.37514 43.968
6.22676 7.31918 43.6833
6.16925 7.32004 43.6945
6.09282 7.27654 43.5288
6.01458 7.26483 43.4137
5.81502 7.21724 43.2094
5.74796 7.21185 43.1576
5.59794 7.1581 42.8844
5.53166 7.15282 42.8335
5.46704 7.13213 42.7587
5.3934 7.1057 42.6246
5.33685 7.10627 42.6337
5.13499 7.05443 42.3765
4.87111 6.99814 42.0729
4.80678 6.99306 42.0231
4.73846 6.95259 41.8714
4.54369 6.90256 41.6233
4.48808 6.90288 41.6305
4.36173 6.89298 41.5329
4.11293 6.80946 41.1966
3.95403 6.815 41.2696
3.89368 6.84459 41.3191
3.83819 6.84475 41.325
3.73372 6.85015 41.3914
2.06024 7.08562 42.8944
1.71893 7.13934 43.1916
-0.118976 7.44229 44.9362
-4.24988 8.08258 48.5753
-4.31496 8.08076 48.5606
-4.61475 8.14798 48.8839
-4.68005 8.14604 48.8682
-4.82323 8.15986 49.0015
-6.11677 8.39388 50.2361
-7.05013 8.54689 50.9952
7.38135 7.57276 45.3708
7.29613 7.55959 45.2445
7.12809 7.5005 44.9408
7.04443 7.48768 44.8171
6.98707 7.45599 44.7774
6.90408 7.44337 44.6549
6.8457 7.44443 44.6678
6.74099 7.38596 44.3602
6.67119 7.38031 44.3064
6.60151 7.37465 44.2523
6.45321 7.32477 44.0287
6.38419 7.31919 43.9752
6.30537 7.29129 43.8322
6.23793 7.26992 43.7545
6.16957 7.26442 43.7016
6.01487 7.20957 43.4207
5.94732 7.20419 43.3687
5.74821 7.15688 43.1644
5.67152 7.14558 43.0511
5.59817 7.10349 42.8911
5.54137 7.1041 42.9007
5.32791 7.04626 42.5806
5.26233 7.04109 42.53
5.06142 6.98978 42.2742
5.00517 6.99023 42.2825
4.93567 6.94951 42.1287
4.6667 6.88897 41.7716
4.61095 6.8893 41.7791
4.36177 6.83998 41.5387
4.30619 6.84023 41.5456
4.24326 6.83533 41.4966
3.7337 6.79717 41.3969
1.71881 7.08315 43.1962
1.19306 7.18029 43.6652
-0.057826 7.3837 44.9435
-0.119138 7.38302 44.94
-1.12106 7.52184 45.791
-2.58106 7.77609 47.1393
-3.06021 7.85138 47.5775
-3.67724 7.92447 47.9917
-4.24991 8.01678 48.5775
-4.315 8.01495 48.5628
-4.61478 8.08161 48.886
-6.11667 8.32509 50.2376
-6.72287 8.40512 50.6634
-7.04994 8.47671 50.9964
7.61276 7.57367 45.6748
7.46715 7.56165 45.5611
7.38191 7.51506 45.3788
7.29666 7.50205 45.2525
7.21233 7.47258 45.0998
7.12859 7.44334 44.9487
6.97521 7.39227 44.7174
6.90454 7.38656 44.6626
6.83407 7.38087 44.608
6.6716 7.32394 44.3138
6.57883 7.30531 44.1281
6.52272 7.27424 44.0893
6.45358 7.26874 44.036
6.23826 7.21421 43.7616
6.16989 7.20877 43.7087
6.01516 7.15429 43.4277
5.94759 7.14896 43.3756
5.88144 7.12803 43.2991
5.81555 7.10718 43.223
5.74846 7.1019 43.1712
5.59839 7.04885 42.8978
5.53208 7.04368 42.8468
5.32809 6.992 42.5872
5.2625 6.98689 42.5365
5.20945 6.95695 42.4985
5.1353 6.9464 42.3893
4.93579 6.8958 42.1349
4.86299 6.8855 42.0276
4.80699 6.88586 42.0355
4.66678 6.8357 41.7777
4.61102 6.836 41.7851
4.54383 6.79638 41.6353
4.48821 6.79664 41.6424
4.41736 6.78672 41.5378
3.89366 6.73892 41.3304
3.83816 6.73903 41.3362
3.73368 6.74418 41.4025
-0.119303 7.32374 44.9439
-2.5812 7.71287 47.1423
-3.67734 7.85969 47.9942
-4.47248 8.00187 48.7548
-4.6148 8.01524 48.8881
-6.11656 8.25629 50.2391
-6.72271 8.33551 50.6646
-7.04976 8.40653 50.9976
7.61336 7.51558 45.683
7.38246 7.45733 45.3869
7.12909 7.38616 44.9565
6.90499 7.32973 44.6703
6.83451 7.32409 44.6156
6.76561 7.28606 44.5084
6.67201 7.26755 44.3213
6.5231 7.21813 44.0967
6.45395 7.21268 44.0433
6.3849 7.20721 43.9898
6.22774 7.15235 43.7048
6.15951 7.14701 43.6522
6.09374 7.11026 43.5499
6.01545 7.09899 43.4347
5.95816 7.09967 43.4452
5.8158 7.05211 43.2299
5.7487 7.04689 43.178
5.59861 6.9942 42.9045
5.53229 6.98909 42.8535
5.46765 6.96866 42.7785
5.39397 6.94276 42.6442
5.32826 6.93772 42.5937
5.19178 6.89193 42.3871
5.13545 6.89235 42.3957
5.06169 6.88198 42.2869
4.8631 6.8319 42.0338
4.80709 6.83223 42.0417
4.73874 6.79237 41.8897
4.66686 6.78241 41.7838
4.48827 6.74349 41.6484
4.4174 6.73371 41.5437
4.36185 6.73392 41.5506
4.30626 6.73412 41.5573
4.25063 6.7343 41.564
4.10904 6.65973 41.2101
3.94912 6.68597 41.3302
3.89365 6.68606 41.3361
3.83814 6.68615 41.3418
3.52439 6.73567 41.639
2.2735 6.89774 42.6624
-0.119471 7.26444 44.9478
-2.58134 7.64965 47.1452
-6.11644 8.18749 50.2406
-7.04957 8.33634 50.9988
7.55467 7.45868 45.7059
7.38301 7.39958 45.3949
7.29773 7.38689 45.2685
7.12959 7.32896 44.9644
7.04586 7.31661 44.8406
6.97615 7.27847 44.7328
6.90545 7.27287 44.678
6.74226 7.2166 44.3828
6.67242 7.21113 44.3289
6.45431 7.1566 44.0507
6.38525 7.1512 43.9971
6.30743 7.10806 43.8288
6.22806 7.0967 43.712
6.07298 7.043 43.4311
6.01574 7.04367 43.4417
5.95843 7.04432 43.4522
5.73905 6.98615 43.1233
5.6722 6.981 43.0715
5.59883 6.93953 42.9112
5.54201 6.94005 42.9207
5.39415 6.8884 42.6508
5.32844 6.88342 42.6002
5.06182 6.82805 42.2933
5.00555 6.82842 42.3015
4.93603 6.78831 42.1475
4.66693 6.7291 41.7899
4.61116 6.72935 41.7973
4.41744 6.68068 41.5497
4.36188 6.68086 41.5565
4.30629 6.68104 41.5633
3.74024 6.64294 41.4687
3.6287 6.64299 41.4794
3.52435 6.68225 41.6445
3.46826 6.68225 41.6494
2.27338 6.84246 42.6673
1.19258 7.00914 43.6785
-1.25792 7.37275 45.8405
-2.58149 7.58642 47.1482
-3.67752 7.7301 47.9992
7.46885 7.38769 45.5856
7.35715 7.3282 45.2627
7.29826 7.32927 45.2766
7.21388 7.3004 45.1237
7.13008 7.27174 44.9723
6.96426 7.21507 44.6729
6.9059 7.216 44.6857
6.8233 7.20406 44.5636
6.67282 7.1547 44.3364
6.59153 7.14303 44.2164
6.52386 7.10584 44.1115
6.45468 7.1005 44.0581
6.23925 7.04699 43.7832
6.17083 7.04172 43.7301
5.94842 6.98317 43.3966
5.88092 6.978 43.3443
5.81632 6.94193 43.2436
5.74919 6.93682 43.1917
5.59905 6.88484 42.918
5.5327 6.87984 42.8669
5.46647 6.87482 42.8156
5.31946 6.82375 42.5473
5.26299 6.82416 42.5561
5.13575 6.7842 42.4085
5.06195 6.77411 42.2997
4.8633 6.72465 42.0464
4.80728 6.72493 42.0542
4.667 6.67577 41.7961
4.61123 6.67599 41.8034
4.5398 6.66633 41.6978
4.48838 6.63715 41.6605
4.41748 6.62763 41.5557
4.36192 6.62779 41.5625
3.94909 6.58024 41.3417
3.89361 6.58029 41.3475
3.83809 6.58033 41.3532
3.74022 6.58981 41.4743
3.31196 6.63834 41.781
3.25561 6.63827 41.7854
3.15171 6.66282 41.929
2.27325 6.78717 42.6722
-0.119813 7.14581 44.9555
-0.252716 7.17841 44.998
-0.373145 7.18952 45.1252
-2.58163 7.52318 47.1511
-2.85618 7.56965 47.3151
-3.54027 7.65305 47.8704
-4.91841 7.88137 49.2194
-7.04918 8.19595 51.0011
7.3709 7.2773 45.341
7.21483 7.22659 45.1048
7.13058 7.21449 44.9803
6.90635 7.1591 44.6934
6.82373 7.14731 44.5713
6.74309 7.10359 44.398
6.67323 7.09824 44.344
6.52424 7.04966 44.1189
6.45504 7.04439 44.0655
6.38596 7.0391 44.0118
6.2287 6.98534 43.7264
6.16044 6.98016 43.6737
6.08411 6.93808 43.5083
6.01631 6.93296 43.4559
5.95899 6.93355 43.4663
5.80651 6.88123 43.1887
5.73953 6.87621 43.137
5.52338 6.81978 42.8131
5.46666 6.82022 42.8223
5.39452 6.77964 42.6641
5.32878 6.77477 42.6134
5.13589 6.73009 42.415
5.06208 6.72014 42.3061
4.8634 6.67099 42.0527
4.80737 6.67125 42.0604
4.73901 6.63198 41.9083
4.66707 6.62243 41.8023
4.48843 6.58394 41.6665
4.41752 6.57457 41.5617
4.36195 6.5747 41.5685
4.30634 6.57482 41.5752
4.23602 6.56546 41.4705
4.10352 6.50356 41.1984
4.04831 6.50361 41.2045
3.94907 6.52735 41.3474
3.83806 6.52739 41.3589
3.41202 6.57524 41.6652
3.3119 6.58463 41.7864
3.25554 6.58454 41.7908
2.82724 6.65773 42.2306
2.33103 6.73212 42.675
2.27312 6.73186 42.6772
2.16666 6.74166 42.8
2.05955 6.75147 42.9231
1.19225 6.89497 43.6875
-0.119988 7.08648 44.9595
-0.494421 7.14076 45.2564
-0.811797 7.19647 45.558
-0.873875 7.19556 45.5525
-1.13344 7.25284 45.8603
-1.25831 7.25086 45.8476
-2.58178 7.45992 47.1541
-3.12508 7.52983 47.5798
-3.54039 7.58846 47.873
-4.91842 7.8144 49.2215
-5.21143 7.863 49.379
7.61576 7.283 45.7163
7.55644 7.28409 45.7308
7.44369 7.22517 45.4053
7.37145 7.21958 45.3492
7.29932 7.21398 45.2928
7.13107 7.15722 44.9883
7.04784 7.12917 44.8377
6.97754 7.1076 44.7562
6.9068 7.10218 44.7012
6.74351 7.04705 44.4057
6.67363 7.04176 44.3516
6.45541 6.98824 44.0729
6.3863 6.98301 44.0192
6.30845 6.94054 43.8506
6.22902 6.92963 43.7337
6.17146 6.93025 43.7446
6.08441 6.88264 43.5154
6.01659 6.87758 43.463
5.94896 6.87254 43.4107
5.80676 6.82618 43.1956
5.73976 6.82121 43.1439
5.67287 6.81623 43.092
5.59948 6.77539 42.9315
5.52358 6.76519 42.8198
5.3947 6.72523 42.6707
5.32895 6.72041 42.6201
5.2633 6.71558 42.5692
5.0622 6.66616 42.3126
5.00592 6.66644 42.3207
4.93638 6.62693 42.1665
4.86349 6.61732 42.059
4.66714 6.56906 41.8085
4.61135 6.56923 41.8157
4.41755 6.52148 41.5678
4.36197 6.52159 41.5745
4.30636 6.52168 41.5811
4.23603 6.51246 41.4765
3.83803 6.47444 41.3646
3.62858 6.48342 41.4961
3.41195 6.52172 41.6707
3.31183 6.5309 41.7919
2.93308 6.5788 42.0915
2.83031 6.5881 42.2132
2.43994 6.65189 42.5344
1.54137 6.78683 43.3959
1.2558 6.82225 43.6684
1.19208 6.83786 43.692
1.13256 6.83737 43.6915
-0.373533 7.07021 45.133
-0.494606 7.08088 45.2602
-0.556308 7.08003 45.2555
-0.874067 7.13513 45.5561
-0.997714 7.14594 45.6839
-1.13364 7.19189 45.8639
-1.25851 7.18989 45.8511
-2.58193 7.39666 47.1571
-2.8565 7.44251 47.3209
-3.12521 7.46579 47.5825
-3.54051 7.52387 47.8756
-3.67781 7.53565 48.0068
-4.91843 7.74743 49.2235
-5.04949 7.74344 49.1899
-5.20288 7.77574 49.352
7.55703 7.22585 45.7391
7.37199 7.16184 45.3573
7.21585 7.11171 45.1208
6.97801 7.05059 44.7641
6.90725 7.04524 44.709
6.66229 6.97927 44.293
6.58111 6.9681 44.1732
6.52499 6.93724 44.1339
6.45577 6.93208 44.0804
6.22934 6.87389 43.741
6.17177 6.87448 43.7518
6.01687 6.82218 43.4701
5.94922 6.81719 43.4178
5.88435 6.78142 43.3164
5.807 6.7711 43.2026
5.74991 6.77156 43.2124
5.59969 6.72064 42.9384
5.52377 6.71058 42.8266
5.32911 6.66603 42.6267
5.26346 6.66126 42.5758
5.21042 6.63154 42.5374
5.13617 6.62182 42.428
4.86359 6.56363 42.0653
4.80754 6.56383 42.073
4.6672 6.51568 41.8147
4.61141 6.51582 41.8219
4.48853 6.47749 41.6787
4.41758 6.46838 41.5738
4.362 6.46846 41.5805
3.83799 6.42147 41.3703
3.72683 6.42137 41.3811
3.62853 6.43019 41.5017
3.31176 6.47715 41.7973
3.25539 6.47702 41.8016
3.09183 6.51558 41.9715
2.93299 6.52451 42.0967
1.54121 6.73023 43.4006
1.48214 6.7298 43.4009
1.37131 6.73946 43.5247
-0.120347 6.96778 44.9673
-0.242983 6.96621 44.9596
-0.373731 7.01053 45.1368
-2.58207 7.33338 47.16
-2.64592 7.33203 47.1498
-2.85667 7.37892 47.3239
-2.99066 7.39033 47.4545
-3.54063 7.45928 47.8783
-5.04949 7.67647 49.1919
7.44481 7.10953 45.4218
7.37254 7.10407 45.3656
7.19069 7.04176 44.991
7.1194 7.03642 44.9357
6.9077 6.98827 44.7168
6.82502 6.97695 44.5946
6.74434 6.93391 44.421
6.68618 6.93462 44.4331
6.52537 6.881 44.1414
6.45613 6.8759 44.0878
6.387 6.87078 44.0341
6.22966 6.81814 43.7483
6.15063 6.80757 43.6318
6.08499 6.7717 43.5297
6.01715 6.76675 43.4773
5.95981 6.76724 43.4875
5.80724 6.716 43.2096
5.74022 6.71115 43.1578
5.52396 6.65595 42.8334
5.45783 6.65119 42.7824
5.39505 6.61634 42.6841
5.32928 6.61164 42.6334
5.06244 6.55813 42.3255
5.00615 6.55835 42.3336
4.86368 6.50992 42.0717
4.80763 6.51009 42.0794
4.73925 6.47142 41.927
4.66726 6.46228 41.8209
4.61146 6.46239 41.8281
4.41761 6.41526 41.5799
4.36202 6.41531 41.5866
4.23603 6.4064 41.4884
4.1011 6.3599 41.2377
4.04584 6.35989 41.2437
3.949 6.36858 41.3648
3.83796 6.36848 41.3761
3.41181 6.41463 41.6818
3.25531 6.42323 41.8071
3.03504 6.46132 41.9807
2.93289 6.4702 42.102
2.83012 6.47909 42.2236
1.19173 6.7236 43.7011
-0.373931 6.95085 45.1407
-1.13403 7.06995 45.8711
-1.25891 7.06792 45.8582
-2.99081 7.3265 47.4574
-3.12546 7.33767 47.588
-5.21151 7.66114 49.3851
-5.3573 7.67319 49.5187
7.61755 7.10832 45.7415
7.5582 7.10929 45.7559
7.44537 7.05168 45.4301
7.37308 7.04628 45.3738
7.3009 7.04086 45.3173
7.19119 6.98446 44.9991
7.11989 6.97918 44.9438
7.04926 6.95781 44.8615
6.97893 6.93652 44.7798
6.90815 6.93129 44.7247
6.74476 6.8773 44.4287
6.67483 6.87218 44.3745
6.60501 6.86705 44.3202
6.45649 6.81969 44.0953
6.38734 6.81464 44.0415
6.30839 6.7884 43.8979
6.22997 6.76236 43.7556
6.07472 6.71084 43.474
6.01742 6.71131 43.4844
5.94975 6.70644 43.4321
5.74045 6.65609 43.1648
5.67353 6.65128 43.1128
5.6001 6.61108 42.9521
5.52415 6.6013 42.8403
5.39523 6.56187 42.6908
5.32944 6.55722 42.6401
5.26376 6.55256 42.5891
5.06256 6.50408 42.3321
5.00626 6.50428 42.3401
4.9367 6.46539 42.1856
4.86377 6.45619 42.0781
4.80771 6.45633 42.0857
4.66732 6.40885 41.8272
4.61151 6.40894 41.8344
4.41763 6.36211 41.586
4.36204 6.36214 41.5927
4.23603 6.35334 41.4945
3.83791 6.31547 41.3818
3.72673 6.31528 41.3925
3.62843 6.32369 41.513
3.41173 6.36105 41.6873
3.09164 6.40741 41.9823
3.03493 6.40721 41.9861
2.93279 6.41588 42.1074
2.54779 6.46261 42.405
2.43956 6.48662 42.5496
-0.374134 6.89114 45.1446
-3.54087 7.33005 47.8835
-3.68565 7.36008 48.0423
-4.91846 7.54647 49.2296
-5.05799 7.56228 49.2248
-5.21154 7.59384 49.3871
-5.35729 7.60565 49.5206
-5.7348 7.66744 49.8284
7.55879 7.05098 45.7643
7.37363 6.98846 45.3821
7.30223 6.95057 45.2703
7.20454 6.93318 45.0761
7.13304 6.92792 45.0204
6.9794 6.87945 44.7878
6.90859 6.87428 44.7326
6.74517 6.82067 44.4365
6.66347 6.80991 44.316
6.58224 6.7992 44.1961
6.52611 6.76844 44.1565
6.45684 6.76346 44.1029
6.30979 6.71687 43.8801
6.23028 6.70656 43.763
6.0177 6.65584 43.4916
5.95002 6.65103 43.4392
5.88378 6.63092 43.3621
5.80772 6.60575 43.2236
5.75061 6.60611 43.2333
5.60031 6.55626 42.959
5.52434 6.54663 42.8471
5.3296 6.50278 42.6468
5.26391 6.49818 42.5958
5.18944 6.48877 42.4858
5.13658 6.45927 42.4476
5.06268 6.45002 42.3386
4.86385 6.40244 42.0845
4.80779 6.40255 42.0921
4.66738 6.35541 41.8334
4.61156 6.35548 41.8406
4.54004 6.34663 41.7348
4.48865 6.31766 41.697
4.41766 6.30895 41.5921
4.36205 6.30896 41.5987
3.93514 6.2542 41.2671
3.83787 6.26244 41.3876
3.72668 6.2622 41.3983
3.41165 6.30746 41.6929
3.25515 6.31561 41.818
3.09154 6.3533 41.9877
3.03483 6.35307 41.9915
2.93268 6.36154 42.1127
2.54766 6.40772 42.4101
-0.187406 6.80564 45.0006
-1.25931 6.94591 45.8653
-2.64638 7.14214 47.1587
-4.91847 7.47947 49.2316
-5.35728 7.5381 49.5225
7.53207 6.98009 45.6299
7.44649 6.9359 45.4467
7.38741 6.93673 45.4605
7.27668 6.88091 45.1399
7.20505 6.87573 45.0843
7.12086 6.86463 44.9599
6.96747 6.81657 44.728
6.90904 6.81724 44.7405
6.82703 6.79053 44.5917
6.74558 6.76402 44.4442
6.52648 6.71214 44.1641
6.4572 6.70721 44.1104
6.23059 6.65074 43.7704
6.15268 6.62525 43.6288
6.08586 6.60512 43.5514
6.01797 6.60035 43.4988
5.80796 6.55059 43.2307
5.7409 6.5459 43.1788
5.52452 6.49193 42.854
5.44895 6.48248 42.7426
5.39557 6.45287 42.7043
5.32975 6.44833 42.6535
5.13671 6.40505 42.4542
5.06279 6.39594 42.3452
4.86393 6.34866 42.0909
4.79961 6.34427 42.0411
4.73946 6.3107 41.9459
4.66743 6.30195 41.8397
4.41767 6.25577 41.5983
4.36207 6.25575 41.6049
4.23602 6.24716 41.5065
4.10342 6.18741 41.2338
4.04575 6.20157 41.2614
3.93509 6.20136 41.2729
3.83782 6.2094 41.3934
3.41157 6.25385 41.6985
2.93257 6.30718 42.118
2.60498 6.35315 42.4127
-0.812968 6.83378 45.5802
-1.25952 6.88488 45.8689
-5.35727 7.47054 49.5244
-5.94889 7.5405 49.9462
7.44704 6.87798 45.4551
7.37471 6.87276 45.3987
7.19269 6.81242 45.0235
7.12134 6.80732 44.9681
7.05068 6.78624 44.8856
6.98032 6.76524 44.8037
6.90948 6.76019 44.7484
6.74599 6.70735 44.452
6.66426 6.69689 44.3315
6.45755 6.65094 44.118
6.38837 6.64606 44.064
6.31045 6.60491 43.8949
6.2309 6.59489 43.7778
6.07557 6.54447 43.4958
6.01825 6.54484 43.5061
5.95053 6.54014 43.4536
5.74112 6.49078 43.1859
5.67416 6.48614 43.1338
5.60071 6.44657 42.9728
5.52471 6.43722 42.8609
5.32991 6.39385 42.6602
5.26419 6.38935 42.6092
5.0629 6.34183 42.3517
4.99797 6.33742 42.3014
4.93699 6.30366 42.205
4.86401 6.29487 42.0974
4.66748 6.24847 41.8461
4.61166 6.24848 41.8531
4.36208 6.20253 41.611
4.236 6.19405 41.5126
3.72656 6.156 41.4098
3.62825 6.16381 41.53
3.51099 6.19229 41.5835
3.09133 6.24502 41.9986
3.03461 6.24475 42.0023
2.93246 6.25281 42.1234
2.5474 6.29791 42.4205
0.722149 6.55218 44.1389
