-7.32036 11.5605 47.4747
-7.38243 11.5575 47.4556
-7.58993 11.5775 47.5522
-7.65193 11.5744 47.5325
-7.86008 11.5942 47.6278
-7.92199 11.591 47.6076
-7.98383 11.5877 47.5872
7.28215 10.6029 43.3994
7.21364 10.5946 43.3512
7.10087 10.6016 43.3836
7.04438 10.6051 43.3995
6.97609 10.5967 43.3508
5.51642 10.6766 43.8533
5.4581 10.6793 43.8648
5.39026 10.6698 43.8106
5.22428 10.6897 43.9095
5.10707 10.6948 43.9309
5.04839 10.6972 43.9413
4.93088 10.7021 43.9618
4.87206 10.7045 43.9717
4.81319 10.7069 43.9816
4.75427 10.7092 43.9912
4.69531 10.7116 44.0008
4.63631 10.7138 44.0101
4.57726 10.7161 44.0193
4.45903 10.7205 44.0373
4.29709 10.7516 44.1963
4.1781 10.7557 44.2128
4.11095 10.7455 44.1542
2.64033 10.8498 44.6427
2.51887 10.8525 44.6508
2.3415 10.8688 44.7302
2.22444 10.8839 44.8052
2.16339 10.885 44.8083
2.10233 10.8861 44.8113
2.04124 10.8872 44.8141
1.91903 10.8893 44.8192
1.74374 10.9177 44.9636
1.621 10.9195 44.9672
1.55961 10.9203 44.9688
1.49822 10.9211 44.9703
1.43681 10.9219 44.9716
1.3174 10.9363 45.0431
1.19757 10.9506 45.114
1.13592 10.9512 45.1145
1.07427 10.9519 45.115
1.01261 10.9525 45.1152
0.88928 10.9536 45.1153
0.709253 10.9809 45.2539
0.647377 10.9814 45.2533
0.5855 10.9818 45.2525
0.461743 10.9825 45.2505
0.2798 11.0095 45.3868
0.155664 11.0099 45.3833
0.0315408 11.0103 45.3792
-0.152245 11.0368 45.5132
-0.276705 11.0368 45.5076
-0.401134 11.0368 45.5014
-0.586689 11.0628 45.633
-0.711413 11.0625 45.6254
-0.836088 11.0621 45.6171
-1.02334 11.0877 45.7463
-1.08581 11.0874 45.7415
-1.14826 11.087 45.7366
-1.39942 11.1118 45.8587
-1.46199 11.1113 45.853
-1.52453 11.1108 45.8472
-1.58706 11.1102 45.8412
-1.71454 11.1357 45.9729
-1.83984 11.1344 45.9599
-1.90245 11.1337 45.9531
-1.96504 11.1329 45.9463
-2.15654 11.1574 46.0695
-2.21923 11.1566 46.062
-2.288 11.1761 46.0799
-2.41329 11.1743 46.0642
-2.54363 11.1995 46.1935
-2.60638 11.1985 46.1851
-2.66909 11.1974 46.1766
-2.86322 11.2214 46.2964
-2.98876 11.219 46.2779
-3.12079 11.2372 46.2847
-3.24682 11.2414 46.3863
-3.30959 11.24 46.3762
-3.37233 11.2387 46.3661
-3.56874 11.2619 46.4822
-3.63855 11.2813 46.4975
-3.69427 11.259 46.4605
-3.8289 11.2835 46.5864
-3.96174 11.3013 46.5897
-4.0245 11.2997 46.578
-4.08722 11.298 46.5661
-4.22313 11.3224 46.691
-4.28591 11.3207 46.6787
-4.34865 11.3189 46.6663
-4.41135 11.3171 46.6537
-4.54824 11.3414 46.7777
-4.61099 11.3395 46.7647
-4.6737 11.3376 46.7515
-4.81146 11.3618 46.8749
-4.93692 11.3577 46.8475
-5.06218 11.3536 46.8196
-5.20099 11.3775 46.9417
-5.26364 11.3754 46.9272
-5.32623 11.3732 46.9126
-5.46588 11.397 47.034
-5.52851 11.3948 47.0189
-5.59108 11.3925 47.0037
-5.79416 11.4138 47.1089
-6.06056 11.4325 47.1971
-6.32769 11.4509 47.2834
-6.45255 11.4457 47.2493
-6.57716 11.4403 47.2147
-6.72027 11.4635 47.3326
-6.84476 11.458 47.2969
-7.05086 11.4782 47.3957
-7.113 11.4753 47.3772
-7.31979 11.4953 47.4749
-7.38186 11.4923 47.4558
-7.58931 11.5121 47.5522
-7.65131 11.509 47.5325
-7.85941 11.5286 47.6277
7.42005 10.5651 43.5023
7.35127 10.5568 43.4541
7.28267 10.5486 43.4061
7.21415 10.5402 43.3579
5.45841 10.6236 43.8703
5.39056 10.6142 43.816
5.21537 10.6218 43.8491
5.10735 10.6388 43.9361
5.04867 10.6413 43.9465
4.93115 10.6461 43.9669
4.87232 10.6485 43.9768
4.81345 10.6508 43.9866
4.75453 10.6531 43.9963
4.69556 10.6554 44.0058
4.63655 10.6577 44.0151
4.5775 10.6599 44.0243
4.45926 10.6642 44.0422
4.29732 10.695 44.201
4.17831 10.6991 44.2175
4.11116 10.6889 44.1589
2.64047 10.7921 44.6467
2.519 10.7947 44.6548
2.45823 10.7959 44.6586
2.34162 10.8109 44.7341
2.22456 10.8257 44.8091
2.16351 10.8268 44.8121
2.10244 10.8279 44.8151
2.04135 10.829 44.8178
1.91913 10.831 44.8229
1.74384 10.8591 44.9672
1.6211 10.8609 44.9708
1.55971 10.8617 44.9724
1.49831 10.8625 44.9738
1.4369 10.8633 44.9751
1.31749 10.8775 45.0465
1.13286 10.8796 45.0486
1.01269 10.8935 45.1186
0.889356 10.8946 45.1186
0.709333 10.9217 45.2571
0.647455 10.9221 45.2565
0.585575 10.9225 45.2557
0.461813 10.9232 45.2536
0.279876 10.9499 45.3898
0.155735 10.9503 45.3863
0.0936689 10.9505 45.3843
0.0316071 10.9506 45.3822
-0.152171 10.9768 45.516
-0.276636 10.9769 45.5104
-0.401069 10.9768 45.5043
-0.586615 11.0026 45.6357
-0.711342 11.0023 45.6281
-0.836021 11.0018 45.6198
-1.02326 11.0272 45.7489
-1.08573 11.0268 45.7441
-1.14819 11.0264 45.7391
-1.27305 11.0256 45.7288
-1.83974 11.0733 45.9621
-6.18512 11.3632 47.1648
-6.45212 11.3811 47.2498
-6.57672 11.3758 47.2152
-6.7198 11.3988 47.333
-6.78207 11.396 47.3152
-6.84428 11.3932 47.2973
-7.05034 11.4132 47.396
-7.11248 11.4103 47.3775
-7.31922 11.4301 47.475
-7.38129 11.4271 47.4559
-7.5887 11.4467 47.5522
-7.65069 11.4436 47.5325
-7.85874 11.463 47.6276
-7.98247 11.4566 47.587
-8.12933 11.479 47.7012
7.40811 10.4988 43.4441
7.3518 10.5024 43.4609
7.28319 10.4942 43.4128
7.21466 10.4859 43.3645
7.15829 10.4893 43.3807
7.10186 10.4928 43.3968
7.04535 10.4962 43.4126
6.97703 10.4878 43.3638
4.69581 10.5992 44.0108
4.45949 10.6079 44.0471
-0.399362 10.9427 45.649
-4.02418 11.1742 46.5811
-4.0869 11.1726 46.5692
-4.28554 11.1948 46.6816
-4.34828 11.193 46.6691
-4.41097 11.1912 46.6566
-4.54782 11.215 46.7803
-4.67327 11.2112 46.7541
-4.79852 11.2073 46.7273
-4.93644 11.2309 46.8498
-5.06168 11.2268 46.8219
-5.20045 11.2502 46.9438
-5.26308 11.2481 46.9293
-5.32567 11.2459 46.9146
-5.52789 11.267 47.0208
-5.59045 11.2647 47.0055
-5.79347 11.2856 47.1105
-5.91848 11.2808 47.0787
-6.0598 11.3039 47.1984
-6.18474 11.2989 47.1654
-6.45169 11.3166 47.2504
-6.51402 11.314 47.2331
-6.57629 11.3113 47.2157
-6.71933 11.334 47.3335
-6.7816 11.3313 47.3156
-6.8438 11.3285 47.2977
-7.04982 11.3483 47.3963
-7.11196 11.3454 47.3778
-7.31865 11.365 47.4752
-7.38072 11.362 47.4561
-7.58808 11.3814 47.5523
-7.65007 11.3783 47.5326
-7.85808 11.3974 47.6275
-7.9818 11.391 47.5869
7.35233 10.4479 43.4677
7.28371 10.4397 43.4196
7.21516 10.4315 43.3712
7.15879 10.4349 43.3874
7.10235 10.4383 43.4034
7.04583 10.4417 43.4192
6.98925 10.445 43.4349
5.3817 10.491 43.7612
5.32343 10.4935 43.7723
5.21595 10.5103 43.8597
5.04922 10.5293 43.957
4.93169 10.534 43.9772
4.87285 10.5363 43.9871
4.81397 10.5386 43.9968
4.75504 10.5408 44.0064
4.69606 10.543 44.0159
4.63704 10.5452 44.0251
4.57798 10.5474 44.0343
4.45972 10.5516 44.052
4.40053 10.5537 44.0607
4.2899 10.5698 44.1441
4.11157 10.5757 44.1683
2.64073 10.6765 44.6548
2.51925 10.679 44.6628
2.45847 10.6802 44.6665
2.34186 10.6949 44.7419
2.22479 10.7094 44.8168
2.16373 10.7105 44.8198
2.10266 10.7115 44.8227
2.04157 10.7125 44.8254
1.98046 10.7135 44.828
1.91933 10.7145 44.8304
1.85819 10.7154 44.8327
1.74405 10.7421 44.9745
1.62129 10.7437 44.978
1.55989 10.7445 44.9795
1.49849 10.7453 44.9809
1.43707 10.7461 44.9822
1.31421 10.7475 44.9842
1.12985 10.7494 44.9862
-0.400114 10.8697 45.5808
-0.58647 10.8821 45.6412
-0.711206 10.8817 45.6335
-0.773556 10.8815 45.6294
-0.835893 10.8812 45.6251
-0.898216 10.8809 45.6208
-1.02311 10.9061 45.754
-1.14805 10.9053 45.7442
-1.21049 10.9048 45.7391
-1.27292 10.9044 45.7338
-1.46174 10.9288 45.8603
-1.52429 10.9282 45.8544
-1.58682 10.9276 45.8484
-1.71182 10.9263 45.8359
-1.83956 10.951 45.9667
-1.90218 10.9503 45.9599
-2.28159 10.9715 46.0607
-2.40683 10.9696 46.045
-2.60608 11.0134 46.1912
-2.66239 10.9919 46.1569
-2.73148 11.0112 46.1739
-2.86287 11.0355 46.3021
-2.98841 11.0332 46.2836
-3.11381 11.0307 46.2646
-3.30919 11.0534 46.3815
-3.37193 11.0521 46.3713
-3.44153 11.0713 46.387
-3.57532 11.0954 46.5134
-3.70091 11.0924 46.4915
-3.96126 11.1131 46.5944
-4.02402 11.1115 46.5826
-4.08674 11.1098 46.5708
-4.28536 11.1318 46.683
-4.34809 11.13 46.6706
-4.41079 11.1282 46.658
-4.67305 11.148 46.7554
-4.79831 11.1441 46.7286
-4.93619 11.1675 46.851
-4.99884 11.1654 46.8371
-5.06144 11.1633 46.823
-5.26281 11.1844 46.9303
-5.32539 11.1823 46.9156
-5.52758 11.2031 47.0217
-5.79313 11.2215 47.1113
-5.91813 11.2167 47.0795
-6.04291 11.2118 47.0472
-6.18435 11.2346 47.1661
7.4906 10.4097 43.5708
7.40919 10.39 43.4578
7.28423 10.3853 43.4263
7.21567 10.3771 43.3779
5.382 10.4354 43.7667
5.32373 10.4379 43.7777
5.21624 10.4545 43.8651
5.0495 10.4734 43.9622
4.93196 10.478 43.9824
4.87311 10.4802 43.9923
4.75529 10.4847 44.0115
4.69631 10.4869 44.0209
4.63728 10.489 44.0302
4.57821 10.4911 44.0393
4.45995 10.4953 44.057
4.40075 10.4974 44.0656
4.29012 10.5133 44.149
4.11178 10.5191 44.1731
2.64086 10.6187 44.6588
2.51937 10.6212 44.6668
2.45859 10.6223 44.6705
2.34198 10.6369 44.7458
2.16385 10.6523 44.8236
2.10277 10.6533 44.8265
2.04167 10.6543 44.8292
1.98056 10.6553 44.8317
1.91943 10.6562 44.8342
1.85829 10.6571 44.8364
1.74415 10.6835 44.9781
1.62138 10.6852 44.9816
1.55998 10.6859 44.9831
1.49857 10.6867 44.9845
1.43715 10.6874 44.9857
1.31428 10.6888 44.9877
-4.4106 11.0653 46.6594
-4.67284 11.0848 46.7567
-4.79809 11.0809 46.7299
-4.93595 11.104 46.8522
-4.9986 11.102 46.8382
-5.06119 11.0999 46.8242
-5.26254 11.1208 46.9313
-5.32512 11.1186 46.9167
-5.52727 11.1393 47.0226
-5.79278 11.1574 47.1121
-5.91779 11.1526 47.0803
-6.04255 11.1477 47.048
-6.18396 11.1702 47.1668
-6.30864 11.1651 47.1333
-6.45084 11.1876 47.2514
-6.51316 11.1849 47.2342
-6.57542 11.1822 47.2168
-6.71839 11.2045 47.3343
-6.78065 11.2018 47.3164
-6.84285 11.199 47.2984
-7.04878 11.2184 47.3969
-7.11091 11.2155 47.3783
-7.31752 11.2346 47.4755
-7.37958 11.2317 47.4564
-7.44157 11.2287 47.4371
-7.58685 11.2506 47.5523
-7.64883 11.2475 47.5326
-7.72056 11.2664 47.5402
-7.86673 11.2883 47.655
-8.00051 11.304 47.6418
-8.14757 11.3259 47.7562
7.40973 10.3355 43.4646
7.28475 10.3309 43.4331
7.21618 10.3227 43.3847
7.15979 10.3261 43.4008
7.10333 10.3294 43.4167
7.0468 10.3326 43.4324
6.9902 10.3359 43.448
-3.57506 10.9704 46.5168
-3.70064 10.9674 46.4949
-3.76337 10.9659 46.4838
-3.82606 10.9643 46.4725
-4.02371 10.9861 46.5857
-4.08643 10.9844 46.5738
-4.1491 10.9827 46.5618
-4.28499 11.0059 46.6859
-4.41042 11.0023 46.6608
-4.67263 11.0216 46.758
-4.73528 11.0197 46.7446
-4.79788 11.0177 46.7312
-4.93571 11.0406 46.8534
-4.99836 11.0386 46.8394
-5.06095 11.0365 46.8253
-5.26226 11.0571 46.9324
-5.32484 11.055 46.9177
-5.52697 11.0754 47.0236
-5.65203 11.0708 46.9929
-5.79244 11.0933 47.1129
-5.91744 11.0885 47.0811
-6.0422 11.0836 47.0487
-6.18358 11.1059 47.1674
-6.30825 11.1008 47.1339
-6.45041 11.123 47.252
-6.51273 11.1204 47.2347
7.28527 10.2764 43.4399
7.21669 10.2683 43.3914
7.16029 10.2716 43.4075
7.10383 10.2749 43.4233
7.04729 10.2781 43.439
6.99068 10.2813 43.4546
5.38261 10.3242 43.7777
5.32432 10.3266 43.7886
5.20759 10.3313 43.8101
5.04109 10.3498 43.907
4.93249 10.3658 43.9928
4.87364 10.368 44.0026
4.75579 10.3723 44.0217
4.6968 10.3744 44.0311
4.63777 10.3765 44.0403
4.57869 10.3786 44.0493
4.51957 10.3806 44.0582
4.4604 10.3827 44.0669
4.4012 10.3846 44.0755
4.28267 10.3885 44.0922
4.11219 10.4059 44.1826
2.64111 10.5031 44.667
2.58037 10.5043 44.671
2.51961 10.5055 44.6748
2.45882 10.5066 44.6785
2.33719 10.5088 44.6854
2.16406 10.5359 44.8313
2.10298 10.5369 44.8341
2.04187 10.5378 44.8368
1.98076 10.5388 44.8393
1.91962 10.5397 44.8417
1.85847 10.5405 44.8439
1.74024 10.5543 44.9167
1.62157 10.568 44.9889
1.56016 10.5687 44.9903
1.49874 10.5694 44.9917
1.43732 10.5701 44.9929
1.37588 10.5708 44.9939
1.31444 10.5714 44.9948
1.25298 10.572 44.9955
1.13005 10.5731 44.9966
-0.405727 10.6965 45.5436
-0.467973 10.6963 45.5401
-0.591877 10.7085 45.6037
-0.71619 10.7206 45.6669
-0.778577 10.7203 45.6627
-0.84095 10.72 45.6584
-0.90331 10.7197 45.654
-1.02829 10.7442 45.7873
-1.15875 10.7633 45.8027
-1.22127 10.7628 45.7975
-1.28376 10.7623 45.7921
-1.34623 10.7618 45.7865
-1.47286 10.7862 45.9187
-1.59807 10.785 45.9066
-1.66065 10.7843 45.9003
-1.7232 10.7837 45.8939
-1.85116 10.8079 46.025
-1.91228 10.7943 45.9459
-3.57492 10.9079 46.5186
-3.70051 10.9049 46.4966
-3.76324 10.9034 46.4855
-3.82592 10.9018 46.4742
-4.02355 10.9233 46.5873
-4.08627 10.9217 46.5754
-4.14894 10.92 46.5634
-4.28481 10.9429 46.6874
-4.41023 10.9393 46.6622
-4.53547 10.9357 46.6366
-4.67242 10.9584 46.7593
-4.73507 10.9565 46.7459
-4.79767 10.9545 46.7324
-4.98515 10.9485 46.6912
-5.91709 11.0244 47.0819
-6.18319 11.0416 47.1681
-6.30786 11.0365 47.1345
-6.44999 11.0585 47.2525
-7.8755 11.1791 47.6827
-7.99927 11.1727 47.6418
-8.13449 11.1803 47.6782
7.41082 10.2266 43.4784
7.27353 10.2106 43.382
5.44115 10.2662 43.7721
5.38291 10.2686 43.7832
5.32461 10.2709 43.7941
5.20787 10.2756 43.8155
5.14943 10.2779 43.826
5.04136 10.2938 43.9123
4.93276 10.3097 43.998
4.8739 10.3119 44.0078
4.75604 10.3161 44.0269
4.69705 10.3182 44.0362
4.63801 10.3203 44.0453
4.57892 10.3223 44.0543
4.5198 10.3243 44.0632
4.46063 10.3263 44.0719
4.40142 10.3283 44.0804
4.28288 10.3321 44.0971
4.11239 10.3492 44.1874
2.58049 10.4465 44.675
2.51972 10.4476 44.6788
2.45893 10.4487 44.6825
2.04198 10.4796 44.8406
-3.57479 10.8455 46.5203
-3.70037 10.8424 46.4983
-3.7631 10.8409 46.4871
-3.82579 10.8393 46.4758
-4.0234 10.8606 46.5889
-4.08611 10.8589 46.577
-4.14878 10.8572 46.5649
-4.28463 10.88 46.6888
-4.41005 10.8764 46.6636
-4.53529 10.8727 46.638
-4.67221 10.8952 46.7606
-4.73486 10.8933 46.7472
-4.79745 10.8913 46.7337
-4.9225 10.8874 46.7063
-6.5832 11.0022 47.2947
-6.7262 11.0319 47.3629
-6.78847 11.0292 47.3449
-6.85995 11.048 47.354
-7.06612 11.0669 47.4526
-7.12829 11.064 47.4338
-7.33514 11.0827 47.5311
-7.45925 11.0768 47.4924
-7.60474 11.0982 47.6078
-7.72867 11.0921 47.568
-7.87489 11.1135 47.6828
-7.99864 11.1071 47.6418
-8.13384 11.1145 47.6781
7.41136 10.1721 43.4853
7.27405 10.1562 43.3889
7.21771 10.1594 43.405
7.1613 10.1626 43.4209
7.10481 10.1658 43.4367
7.04826 10.169 43.4523
-0.783723 10.6194 45.6936
-0.846132 10.619 45.6892
-0.908527 10.6187 45.6847
-1.15869 10.642 45.808
-1.2212 10.6415 45.8028
-1.2837 10.641 45.7973
-1.34617 10.6404 45.7918
-1.47193 10.6518 45.852
-1.59799 10.6631 45.9116
-1.66057 10.6624 45.9053
-1.72313 10.6617 45.8989
-1.91065 10.6595 45.8787
-3.44098 10.7601 46.396
-3.57466 10.783 46.522
-3.70025 10.7799 46.5
-3.76297 10.7784 46.4888
-3.82566 10.7768 46.4775
-4.02325 10.7979 46.5904
-4.08596 10.7962 46.5785
-4.14863 10.7945 46.5664
-4.28445 10.817 46.6903
-4.40987 10.8134 46.6651
-4.5351 10.8097 46.6394
-4.67201 10.832 46.7619
-4.73465 10.8301 46.7485
-4.79724 10.8281 46.735
-7.99802 11.0415 47.6417
-8.13319 11.0488 47.678
7.4119 10.1176 43.4922
7.27457 10.1018 43.3957
7.21822 10.105 43.4118
7.1618 10.1081 43.4277
7.10531 10.1113 43.4434
7.04875 10.1144 43.459
6.96857 10.0953 43.3455
5.44176 10.155 43.7832
5.38351 10.1573 43.7942
5.3252 10.1596 43.8051
5.20844 10.1641 43.8264
5.14998 10.1663 43.8368
5.03292 10.1707 43.8572
4.93328 10.1975 44.0085
4.87441 10.1996 44.0182
4.75654 10.2037 44.0372
4.69753 10.2057 44.0464
4.63848 10.2077 44.0555
4.57939 10.2097 44.0645
4.52025 10.2116 44.0732
4.46108 10.2136 44.0819
4.40186 10.2155 44.0904
4.2833 10.2192 44.1069
4.22396 10.221 44.1149
4.11279 10.2359 44.1971
2.64148 10.3297 44.6793
2.58072 10.3308 44.6832
2.51995 10.3319 44.687
2.45916 10.3329 44.6906
2.33751 10.335 44.6974
2.27665 10.3359 44.7006
2.16438 10.3613 44.843
2.04217 10.3631 44.8483
1.98104 10.3639 44.8508
1.9199 10.3647 44.8531
1.85518 10.3844 44.8798
1.73276 10.3859 44.8836
1.6181 10.4111 45.0246
1.55665 10.4118 45.026
1.4952 10.4124 45.0273
1.43373 10.4131 45.0283
1.37225 10.4137 45.0293
1.31076 10.4142 45.0301
1.24926 10.4148 45.0308
-0.409787 10.5482 45.6487
-0.472889 10.5357 45.5741
-0.597426 10.5352 45.5666
-0.783695 10.559 45.6965
-0.846106 10.5586 45.6921
-0.908503 10.5583 45.6875
-1.03325 10.5575 45.678
-1.22117 10.5808 45.8054
-1.28367 10.5803 45.8
-1.34615 10.5797 45.7944
-1.47189 10.591 45.8546
-1.59796 10.6021 45.9141
-1.66054 10.6015 45.9078
-1.72309 10.6007 45.9014
-1.91062 10.5985 45.8811
-3.44087 10.6978 46.3978
-3.56621 10.6949 46.3765
-3.76285 10.7159 46.4905
-3.82553 10.7143 46.4792
-4.02309 10.7351 46.592
-4.08581 10.7334 46.5801
-6.79687 10.9212 47.3732
-6.8591 10.9184 47.3551
-6.92126 10.9156 47.3368
-7.06519 10.9369 47.4534
-7.12735 10.934 47.4346
-7.18944 10.9312 47.4158
-7.33411 10.9523 47.5317
-7.4582 10.9464 47.4929
-7.60361 10.9674 47.6081
-7.72753 10.9613 47.5682
-7.87367 10.9822 47.6828
-7.9974 10.9759 47.6417
-8.13255 10.9831 47.6779
7.41244 10.063 43.4992
7.27508 10.0474 43.4026
7.21873 10.0505 43.4186
5.44206 10.0993 43.7887
5.3838 10.1016 43.7997
5.32549 10.1039 43.8106
5.20872 10.1083 43.8318
5.15026 10.1105 43.8422
5.03319 10.1148 43.8625
4.87467 10.1434 44.0234
4.75679 10.1475 44.0423
4.69778 10.1495 44.0516
4.63872 10.1514 44.0606
4.57962 10.1534 44.0695
4.52048 10.1553 44.0783
4.4613 10.1572 44.0869
4.40207 10.159 44.0954
4.2835 10.1627 44.1118
4.22416 10.1645 44.1198
4.12062 10.1906 44.2684
-1.72306 10.5398 45.9038
-1.91059 10.5375 45.8836
-3.44077 10.6356 46.3997
-3.56611 10.6327 46.3783
-3.76272 10.6534 46.4922
-3.8254 10.6518 46.4809
-3.88805 10.6502 46.4694
-4.02294 10.6724 46.5936
-4.14832 10.669 46.5695
-4.27353 10.6655 46.545
-4.40952 10.6875 46.6679
-4.53474 10.6838 46.6422
-4.67159 10.7056 46.7645
-4.73423 10.7037 46.7511
-4.79683 10.7017 46.7376
-4.92186 10.6978 46.7101
-6.60024 10.8512 47.351
-6.79645 10.8564 47.3737
-6.85867 10.8536 47.3556
-6.92083 10.8509 47.3373
-7.06473 10.8719 47.4538
-7.18897 10.8662 47.4161
-7.3336 10.8871 47.5319
-7.45768 10.8812 47.4931
-7.60305 10.902 47.6083
-7.72696 10.8959 47.5683
-7.86182 10.9031 47.6054
7.41299 10.0085 43.5061
7.2756 9.99293 43.4094
7.21924 9.99603 43.4254
7.1628 9.9991 43.4412
7.10629 10.0021 43.4569
7.04972 10.0052 43.4724
-0.410558 10.4156 45.5835
-0.472847 10.4154 45.58
-0.597393 10.4149 45.5725
-0.783644 10.4382 45.7021
-0.846059 10.4378 45.6977
-0.90846 10.4374 45.6931
-1.03322 10.4366 45.6835
-1.22111 10.4594 45.8108
-1.28362 10.4589 45.8053
-1.3461 10.4583 45.7997
-1.47101 10.4571 45.7881
-1.59789 10.4802 45.9192
-1.66047 10.4795 45.9128
-1.72303 10.4788 45.9064
-1.91057 10.4765 45.886
-3.44066 10.5733 46.4015
-3.566 10.5704 46.3801
-3.76259 10.5909 46.4939
-3.82528 10.5893 46.4825
-3.88792 10.5877 46.471
-4.02279 10.6096 46.5952
-6.79603 10.7916 47.3743
-6.92041 10.7861 47.3378
-7.06426 10.8069 47.4541
-7.18849 10.8012 47.4165
-7.33309 10.8218 47.5322
-7.45717 10.816 47.4934
-7.60249 10.8365 47.6084
-7.7264 10.8305 47.5685
-7.85001 10.8243 47.5281
-8.14291 10.865 47.7554
7.40109 9.94311 43.4485
7.33242 9.93539 43.4002
7.27612 9.93846 43.4163
7.21975 9.94152 43.4323
7.1633 9.94455 43.448
7.0502 9.95053 43.4791
6.96998 9.93184 43.3655
5.44267 9.98805 43.8
5.3844 9.99027 43.8109
5.32607 9.99246 43.8217
5.2677 9.99462 43.8323
5.20928 9.99676 43.8428
5.1508 9.99888 43.8531
5.03371 10.003 43.8733
4.86645 10.0201 43.9682
4.75728 10.035 44.0527
4.69826 10.0369 44.0619
4.58008 10.0407 44.0798
4.52093 10.0425 44.0885
4.46174 10.0444 44.097
4.40251 10.0462 44.1054
4.34323 10.0479 44.1137
4.28392 10.0497 44.1218
4.22456 10.0514 44.1297
4.10574 10.0548 44.1451
2.63872 10.1747 44.7163
2.57793 10.1757 44.7201
2.51711 10.1767 44.7238
2.45627 10.1777 44.7273
2.39541 10.1787 44.7307
2.33453 10.1796 44.7339
2.27363 10.1806 44.737
2.16127 10.2053 44.8795
2.03897 10.2069 44.8847
1.9778 10.2077 44.8871
1.91661 10.2085 44.8893
1.8554 10.2092 44.8913
1.72931 10.2294 44.9196
1.55307 10.2546 45.062
1.43006 10.2558 45.0642
1.36853 10.2563 45.0651
1.307 10.2568 45.0658
1.24546 10.2573 45.0663
1.18392 10.2578 45.0668
1.12236 10.2582 45.067
-0.410538 10.3555 45.5865
-0.472828 10.3553 45.583
-0.597379 10.3548 45.5754
-0.783621 10.3778 45.705
-0.846038 10.3774 45.7005
-0.908442 10.377 45.6959
-1.0332 10.3761 45.6863
-1.22109 10.3987 45.8135
-1.28359 10.3982 45.808
-1.34608 10.3976 45.8024
-1.47099 10.3964 45.7907
-1.59786 10.4192 45.9217
-1.66044 10.4185 45.9154
-1.723 10.4178 45.9089
-1.91054 10.4154 45.8885
-6.59945 10.7218 47.3522
-6.79561 10.7268 47.3748
-6.91998 10.7213 47.3383
-7.0638 10.7418 47.4545
-7.18802 10.7362 47.4169
-7.33258 10.7566 47.5325
-7.45665 10.7508 47.4936
-7.60193 10.7711 47.6086
-7.72583 10.7651 47.5686
-7.84943 10.759 47.5282
-7.99554 10.7791 47.6417
7.40163 9.88862 43.4555
7.33295 9.88095 43.4072
5.5012 9.93018 43.7945
5.44297 9.93239 43.8056
5.38469 9.93457 43.8165
5.32636 9.93672 43.8272
5.26799 9.93885 43.8378
5.20956 9.94096 43.8483
5.15108 9.94304 43.8585
5.03398 9.94713 43.8787
4.8667 9.96398 43.9735
4.75752 9.97874 44.058
4.6985 9.98064 44.0671
4.58031 9.98434 44.0849
4.52116 9.98616 44.0936
4.46196 9.98795 44.1021
4.40272 9.98972 44.1104
4.34344 9.99146 44.1187
4.28412 9.99318 44.1267
4.22476 9.99487 44.1347
4.10593 9.99818 44.15
-0.908424 10.3166 45.6988
-1.03319 10.3157 45.6891
-1.09555 10.3152 45.6841
-1.22106 10.338 45.8162
-1.28357 10.3374 45.8107
-1.34606 10.3369 45.805
-1.47097 10.3356 45.7933
-1.59783 10.3582 45.9243
-1.66041 10.3575 45.9179
-1.72297 10.3568 45.9114
-1.78551 10.356 45.9047
-1.91052 10.3544 45.891
-3.44046 10.4487 46.4052
-3.5658 10.4458 46.3837
-3.76234 10.4659 46.4973
-3.82503 10.4643 46.4859
-3.88767 10.4627 46.4744
-4.15531 10.5013 46.6005
-4.28057 10.4978 46.5758
-4.41663 10.5191 46.6987
-4.47929 10.5173 46.6858
-4.5419 10.5154 46.6728
-4.74936 10.5555 46.8082
-4.812 10.5535 46.7945
-4.93713 10.5495 46.7668
-6.58995 10.6442 47.2762
-6.79519 10.662 47.3753
-6.91955 10.6565 47.3388
-7.06333 10.6768 47.4549
7.40217 9.83412 43.4625
7.33348 9.8265 43.4142
7.27716 9.82949 43.4302
7.22077 9.83246 43.446
7.16431 9.8354 43.4617
1.55318 10.1371 45.0696
1.43015 10.1382 45.0717
1.36862 10.1387 45.0725
1.30709 10.1392 45.0732
1.24554 10.1396 45.0737
1.18399 10.1401 45.0741
-0.409645 10.2471 45.6636
-0.472797 10.235 45.589
-0.535082 10.2348 45.5852
-0.597356 10.2345 45.5814
-0.659619 10.2342 45.5773
-0.78358 10.257 45.7107
-0.908409 10.2561 45.7016
-0.970802 10.2557 45.6968
-1.03318 10.2552 45.6919
-1.09554 10.2547 45.6869
-1.22104 10.2773 45.8189
-1.28355 10.2767 45.8134
-1.34604 10.2761 45.8077
-1.47096 10.2749 45.796
-1.5978 10.2972 45.9269
-1.66038 10.2965 45.9204
-1.72295 10.2958 45.9139
-1.78549 10.295 45.9072
-1.9105 10.2934 45.8934
-6.59866 10.5924 47.3534
-6.65178 10.577 47.2591
-6.79477 10.5972 47.3758
-6.91913 10.5917 47.3393
-7.06287 10.6118 47.4553
-7.18708 10.6062 47.4176
-7.32129 10.6134 47.4562
-7.45561 10.6204 47.4941
-7.72469 10.6343 47.5688
-7.84828 10.6282 47.5284
-8.15121 10.6893 47.783
7.40271 9.77961 43.4696
7.334 9.77203 43.4211
7.27768 9.77498 43.4371
7.22128 9.7779 43.4529
7.16481 9.7808 43.4686
5.50181 9.81888 43.8059
5.44357 9.82101 43.8169
5.38528 9.82313 43.8277
5.32694 9.82521 43.8384
5.26855 9.82727 43.8489
5.21011 9.82931 43.8593
5.15162 9.83132 43.8695
5.0345 9.83528 43.8895
4.8672 9.85174 43.9841
4.69897 9.86801 44.0775
4.58077 9.87159 44.0952
4.5216 9.87335 44.1038
4.46239 9.87508 44.1123
4.40314 9.87678 44.1206
4.34385 9.87846 44.1287
4.28453 9.88012 44.1367
4.22516 9.88175 44.1446
4.1063 9.88495 44.1599
2.63591 10.0194 44.7536
2.57506 10.0204 44.7574
2.5142 10.0213 44.761
2.45331 10.0223 44.7644
2.39241 10.0232 44.7677
2.33148 10.0241 44.7708
2.27054 10.0249 44.7738
2.1486 10.0265 44.7794
2.0357 10.0505 44.9214
1.97448 10.0513 44.9237
1.91325 10.052 44.9258
1.852 10.0527 44.9278
1.79074 10.0533 44.9296
1.72946 10.054 44.9313
1.5494 10.067 45.0044
1.4302 10.0794 45.0754
1.36867 10.0799 45.0762
1.30713 10.0803 45.0769
1.24558 10.0808 45.0774
1.18402 10.0812 45.0778
1.12246 10.0816 45.078
-0.410486 10.1752 45.5956
-0.472784 10.1749 45.592
-0.535071 10.1746 45.5882
-0.597348 10.1743 45.5843
-0.659613 10.174 45.5803
-0.783562 10.1965 45.7136
-0.908395 10.1957 45.7044
-0.97079 10.1952 45.6997
-1.03317 10.1948 45.6947
-1.09553 10.1943 45.6897
-1.22102 10.2166 45.8216
-1.34602 10.2154 45.8104
-1.40849 10.2148 45.8046
-1.47095 10.2141 45.7986
-1.66036 10.2355 45.923
-1.72292 10.2348 45.9164
-1.78546 10.234 45.9097
-4.54933 10.4099 46.7022
-4.74903 10.4289 46.8111
-4.9368 10.423 46.7696
-6.58919 10.515 47.2775
-6.6514 10.5124 47.2597
-6.79436 10.5324 47.3764
7.40325 9.72507 43.4766
7.33453 9.71754 43.4281
5.50212 9.76321 43.8116
5.44387 9.76531 43.8226
5.38558 9.76738 43.8334
5.32723 9.76944 43.844
5.26883 9.77146 43.8545
5.21039 9.77347 43.8648
5.15189 9.77545 43.875
5.03476 9.77934 43.895
4.97612 9.78124 43.9047
4.86745 9.7956 43.9895
4.58099 9.8152 44.1004
4.52182 9.81692 44.1089
4.46261 9.81862 44.1174
1.18405 10.0223 45.0814
-0.410472 10.115 45.5986
-0.472772 10.1147 45.595
-0.535062 10.1144 45.5912
-0.597341 10.1141 45.5873
-0.659608 10.1138 45.5832
-0.783546 10.1361 45.7165
-0.908384 10.1352 45.7073
-0.97078 10.1348 45.7025
-1.03316 10.1343 45.6976
-1.09553 10.1338 45.6925
-1.221 10.1559 45.8243
-1.34601 10.1546 45.8131
-1.40848 10.154 45.8072
-1.47093 10.1533 45.8013
-1.66033 10.1745 45.9256
-1.7229 10.1737 45.919
-1.78544 10.173 45.9123
-1.84796 10.1721 45.9054
-1.91046 10.1713 45.8984
-3.45419 10.3023 46.4631
-3.50285 10.2604 46.4
-3.57257 10.2792 46.4153
-3.64231 10.2978 46.4303
-3.77646 10.3189 46.5552
-3.9019 10.3157 46.532
-4.02717 10.3124 46.5083
-4.16243 10.3333 46.6318
-4.22511 10.3316 46.6194
-4.28774 10.3298 46.6069
-4.42387 10.3506 46.7299
-4.48656 10.3487 46.7169
-4.54919 10.3469 46.7037
-4.74887 10.3656 46.8125
-4.93664 10.3597 46.7709
-8.13686 10.5536 47.6554
7.47261 9.67796 43.5319
7.39133 9.66015 43.4191
7.33506 9.66304 43.4352
7.27871 9.66591 43.4511
7.2223 9.66875 43.4668
2.63609 9.90349 44.7622
2.57524 9.90441 44.7659
2.51437 9.90532 44.7694
2.45348 9.9062 44.7728
2.39256 9.90705 44.7761
2.33163 9.90788 44.7792
2.27068 9.90869 44.7821
2.14872 9.91023 44.7876
2.03583 9.93375 44.9295
1.97461 9.93444 44.9317
1.85211 9.93574 44.9357
1.79084 9.93636 44.9375
1.72956 9.93695 44.9391
1.66826 9.93752 44.9406
1.54949 9.94969 45.0121
1.43028 9.96177 45.083
1.36875 9.96222 45.0837
1.3072 9.96264 45.0844
1.24564 9.96304 45.0848
1.18408 9.96341 45.0851
1.12251 9.96376 45.0853
-0.41046 10.0549 45.6017
-0.472763 10.0546 45.598
-0.535055 10.0543 45.5942
-0.597336 10.0539 45.5903
-0.659606 10.0536 45.5862
-0.783532 10.0757 45.7194
-0.908374 10.0748 45.7102
-0.970772 10.0743 45.7053
-1.03316 10.0738 45.7004
-1.09552 10.0733 45.6953
-1.22099 10.0951 45.827
-1.34599 10.0939 45.8158
-1.40847 10.0932 45.8099
-1.47092 10.0926 45.8039
-1.66031 10.1135 45.9281
-1.78542 10.1119 45.9148
-1.84794 10.1111 45.9079
-1.91044 10.1103 45.9009
-4.74872 10.3023 46.8139
-4.93647 10.2964 46.7723
-6.58844 10.3859 47.2788
-6.65063 10.3833 47.261
-6.78418 10.3904 47.3012
-6.91785 10.3974 47.3408
-7.05471 10.4143 47.3727
-7.19524 10.4325 47.4462
-7.32881 10.4481 47.4351
-7.59744 10.4617 47.5104
-7.86661 10.475 47.5838
-8.13628 10.488 47.6555
7.39187 9.60568 43.4262
7.33559 9.60852 43.4422
7.27923 9.61134 43.4581
7.22281 9.61414 43.4737
7.16697 9.58259 43.4407
6.97324 9.58747 43.3821
5.56093 9.64977 43.8121
5.50272 9.65183 43.8231
5.44447 9.65386 43.834
5.38616 9.65586 43.8447
5.3278 9.65785 43.8553
5.26939 9.65981 43.8657
5.21094 9.66174 43.876
5.15243 9.66366 43.8861
5.09387 9.66554 43.8961
5.03527 9.66741 43.9059
4.97662 9.66925 43.9156
4.85918 9.67286 43.9345
4.69118 9.68855 44.0275
4.58144 9.70238 44.1108
4.52226 9.70404 44.1193
4.46304 9.70568 44.1277
4.40377 9.70729 44.1359
4.34447 9.70888 44.144
4.28512 9.71045 44.1519
4.2236 9.72983 44.1839
4.16632 9.71351 44.1673
4.10464 9.73286 44.1989
2.63618 9.8455 44.7665
2.57533 9.84641 44.7702
2.51445 9.84729 44.7737
2.45355 9.84814 44.7771
2.39264 9.84898 44.7803
2.3317 9.84979 44.7834
2.27074 9.85057 44.7863
2.14878 9.85207 44.7917
2.03589 9.87534 44.9335
1.97466 9.876 44.9357
1.85216 9.87727 44.9397
1.79089 9.87786 44.9414
1.7296 9.87843 44.943
1.66831 9.87898 44.9445
1.54953 9.89101 45.0159
1.43032 9.90294 45.0868
1.36878 9.90337 45.0875
1.24567 9.90415 45.0886
1.18411 9.90451 45.0889
-0.41045 9.99471 45.6047
-0.472755 9.99441 45.6011
-0.53505 9.99409 45.5972
-0.597333 9.99375 45.5933
-0.659605 9.99338 45.5892
-3.64219 10.1731 46.4342
-3.7763 10.1937 46.5588
-3.90174 10.1905 46.5356
-4.02701 10.1872 46.5118
-4.16222 10.2076 46.6352
-4.2249 10.2059 46.6228
-4.28753 10.2041 46.6102
-4.4863 10.2226 46.72
-4.54893 10.2208 46.7068
-4.74856 10.239 46.8154
-4.87378 10.2351 46.7877
-4.93631 10.2331 46.7737
-8.1357 10.4223 47.6555
5.50303 9.59611 43.8289
5.44476 9.59811 43.8397
5.38645 9.60008 43.8504
5.32809 9.60203 43.8609
5.26967 9.60396 43.8713
5.21121 9.60586 43.8816
5.1527 9.60774 43.8917
5.09414 9.6096 43.9016
5.03553 9.61143 43.9114
4.97687 9.61324 43.921
4.85942 9.61678 43.9399
4.80063 9.61852 43.9491
4.69991 9.64262 44.0986
1.54571 9.82141 44.9509
1.43036 9.84411 45.0906
1.36882 9.84452 45.0913
1.2457 9.84526 45.0923
1.18413 9.8456 45.0926
-0.410442 9.93454 45.6078
-0.472749 9.93423 45.6041
-0.535046 9.9339 45.6003
-0.597332 9.93354 45.5963
-0.659606 9.93316 45.5922
-0.908359 9.95384 45.7159
-0.970762 9.95334 45.711
-1.03315 9.95281 45.7061
-1.09552 9.95226 45.7009
-1.22096 9.97364 45.8325
-1.34597 9.97237 45.8212
-1.40845 9.9717 45.8153
-1.47091 9.97101 45.8093
-1.66027 9.99144 45.9333
-1.78539 9.98983 45.9199
-1.84791 9.989 45.913
-1.91041 9.98814 45.9059
-3.45401 10.1152 46.469
-3.51676 10.1137 46.4582
-3.57947 10.1122 46.4472
-3.64213 10.1107 46.4361
-3.77622 10.1311 46.5607
-3.90166 10.1279 46.5374
-4.02693 10.1246 46.5136
-4.16212 10.1448 46.6369
-4.22479 10.1431 46.6244
-4.28742 10.1413 46.6119
-4.48617 10.1595 46.7215
-4.5488 10.1577 46.7084
-4.87362 10.1718 46.7891
-4.93615 10.1698 46.7751
-7.05997 10.3046 47.3592
-7.20397 10.3237 47.4746
-7.32795 10.3181 47.436
-7.59649 10.3312 47.5111
-7.86556 10.3441 47.5843
-8.13513 10.3567 47.6556
7.39294 9.49667 43.4405
7.33664 9.49943 43.4564
7.28027 9.50217 43.4721
7.22383 9.50489 43.4877
2.63636 9.72951 44.7752
2.57549 9.73036 44.7788
2.4537 9.73201 44.7856
2.39278 9.73279 44.7888
2.33183 9.73356 44.7918
2.27087 9.7343 44.7947
2.14889 9.73571 44.8
1.97478 9.7591 44.9438
1.85226 9.76028 44.9477
1.79098 9.76083 44.9494
1.72969 9.76136 44.9509
1.66838 9.76187 44.9524
1.5496 9.77361 45.0237
1.36885 9.78565 45.0951
1.24573 9.78636 45.0961
1.18415 9.78668 45.0963
1.12257 9.78698 45.0964
-0.410436 9.87437 45.6109
-0.472746 9.87405 45.6072
-0.535045 9.87371 45.6033
-0.597333 9.87334 45.5993
-0.659609 9.87294 45.5952
-0.784123 9.87209 45.5865
-0.908354 9.89336 45.7188
-0.970759 9.89284 45.7139
-1.03315 9.89231 45.7089
-1.09552 9.89175 45.7037
-1.22095 9.91289 45.8353
-1.34596 9.9116 45.8239
-1.40844 9.91092 45.818
-3.64208 10.0484 46.438
-3.77614 10.0685 46.5625
-3.90158 10.0653 46.5392
-4.02685 10.062 46.5154
-4.16202 10.0819 46.6386
-4.22469 10.0802 46.6261
-4.28732 10.0785 46.6135
-4.48604 10.0965 46.7231
-4.61126 10.0928 46.6966
-4.87346 10.1085 46.7905
-4.92971 10.0948 46.7023
-6.60571 10.2341 47.3354
-6.66794 10.2315 47.3174
-6.79222 10.2263 47.2812
-7.05959 10.2398 47.3598
-7.32753 10.253 47.4365
-7.59602 10.266 47.5114
-7.86503 10.2787 47.5845
-8.13455 10.2911 47.6557
7.39348 9.44215 43.4476
7.33717 9.44486 43.4635
7.28079 9.44756 43.4792
7.22434 9.45023 43.4947
7.15609 9.42584 43.4214
7.08802 9.4016 43.3486
7.0316 9.40416 43.3636
6.9751 9.4067 43.3785
5.50363 9.48465 43.8404
5.44535 9.48658 43.8512
5.38703 9.48848 43.8618
5.32865 9.49036 43.8723
5.27023 9.49222 43.8826
5.21175 9.49406 43.8928
5.15323 9.49587 43.9028
5.09466 9.49766 43.9127
5.03604 9.49942 43.9224
4.97737 9.50117 43.932
4.8599 9.50459 43.9507
4.80109 9.50626 43.9599
4.68778 9.52802 44.0375
4.5821 9.53305 44.1265
4.52291 9.53462 44.1349
4.46367 9.53616 44.1432
4.40233 9.55541 44.1757
4.34298 9.55691 44.1837
4.28358 9.5584 44.1915
4.22415 9.55986 44.1992
4.16467 9.5613 44.2067
4.10516 9.56272 44.2141
2.63644 9.67149 44.7795
2.57557 9.67233 44.7831
2.45378 9.67392 44.7899
2.39285 9.67469 44.793
2.3319 9.67543 44.796
2.27093 9.67615 44.7989
2.14895 9.67751 44.8042
1.97034 9.69001 44.8794
1.85231 9.70177 44.9517
1.79102 9.70231 44.9534
1.72973 9.70282 44.9549
1.66842 9.7033 44.9563
1.54964 9.7149 45.0276
1.36888 9.72678 45.0989
1.24575 9.72745 45.0998
1.18417 9.72775 45.1001
-3.51665 9.98899 46.4621
-3.57936 9.98749 46.4511
-3.64202 9.98597 46.44
-3.76723 9.98287 46.4173
-3.90151 10.0027 46.541
-4.02677 9.99939 46.5172
-4.16192 10.0191 46.6403
-4.22459 10.0174 46.6278
-4.28722 10.0156 46.6152
-4.48591 10.0334 46.7247
-4.61113 10.0297 46.6981
-4.73615 10.0259 46.6711
-4.8733 10.0452 46.792
-4.92957 10.0317 46.7038
-7.59554 10.2007 47.5117
-7.86451 10.2132 47.5847
-8.13397 10.2254 47.6558
7.39401 9.3876 43.4548
5.50393 9.4289 43.8463
5.44565 9.43079 43.857
5.32893 9.43451 43.878
5.2705 9.43633 43.8883
5.21202 9.43813 43.8985
5.15349 9.43991 43.9085
5.09491 9.44167 43.9183
5.03629 9.4434 43.928
4.97762 9.44511 43.9375
4.86013 9.44847 43.9562
4.80132 9.45011 43.9653
4.69208 9.46338 44.0488
4.58232 9.47658 44.1318
4.52312 9.47812 44.1402
4.40459 9.48113 44.1565
4.34526 9.48259 44.1645
4.2859 9.48404 44.1723
2.27099 9.61798 44.8031
2.149 9.6193 44.8083
1.97038 9.63164 44.8835
1.85235 9.64326 44.9557
1.79106 9.64377 44.9574
1.72976 9.64426 44.9589
1.66845 9.64472 44.9603
1.54579 9.64559 44.9626
1.36891 9.6679 45.1027
1.24577 9.66853 45.1036
1.18419 9.66881 45.1038
-0.41043 9.75401 45.617
-0.472744 9.75366 45.6133
-0.535047 9.75329 45.6094
-0.59734 9.7529 45.6054
-0.65962 9.75248 45.6012
-0.784144 9.75158 45.5925
-0.908351 9.77237 45.7246
-0.97076 9.77184 45.7197
-1.03315 9.77128 45.7146
-1.09553 9.7707 45.7094
-1.22023 9.76947 45.6986
-1.34595 9.79004 45.8293
-1.41414 9.80868 45.849
-1.47664 9.80796 45.8429
-1.53334 9.78788 45.8111
-1.65817 9.78633 45.7983
-1.79131 9.82612 45.9533
-1.85387 9.82526 45.9463
-1.92242 9.84383 45.9648
-3.45385 9.92808 46.475
-3.51659 9.92661 46.4641
-3.5793 9.92511 46.4531
-3.64197 9.92359 46.4419
-3.76718 9.92048 46.4192
-3.90143 9.94006 46.5428
-3.96408 9.93842 46.531
-4.02669 9.93676 46.519
-4.22449 9.95452 46.6295
-4.28712 9.95276 46.6169
-6.60505 10.1048 47.3369
-6.66728 10.1022 47.3189
-6.79155 10.097 47.2826
-7.05882 10.1101 47.3609
-7.32667 10.1229 47.4374
-7.59507 10.1355 47.5121
-7.86398 10.1478 47.5849
-8.13339 10.1598 47.6559
7.39455 9.33304 43.462
7.33822 9.33567 43.4777
6.91849 9.33384 43.4548
6.86177 9.33628 43.4693
6.80499 9.3387 43.4836
6.74814 9.34109 43.4977
6.69123 9.34346 43.5117
6.63425 9.3458 43.5255
6.57721 9.34812 43.5392
6.52011 9.35042 43.5527
6.46294 9.3527 43.5661
6.40571 9.35496 43.5793
6.29107 9.3594 43.6052
6.23366 9.36159 43.618
6.11867 9.36589 43.643
6.06108 9.36801 43.6553
5.94574 9.37218 43.6795
5.78238 9.38819 43.7797
5.61802 9.40403 43.8788
5.27078 9.38043 43.894
5.15375 9.38394 43.9141
5.09517 9.38567 43.9239
5.03654 9.38737 43.9336
4.97786 9.38905 43.9431
4.86037 9.39234 43.9617
4.52333 9.42161 44.1454
4.40479 9.42455 44.1617
4.34546 9.42599 44.1696
4.22668 9.4288 44.185
2.6366 9.55543 44.7883
2.57573 9.55622 44.7918
2.45392 9.55772 44.7985
2.39298 9.55844 44.8016
2.33202 9.55914 44.8045
2.27105 9.55981 44.8073
2.14905 9.56109 44.8125
1.97042 9.57325 44.8876
1.85239 9.58473 44.9597
1.7911 9.58522 44.9614
1.7298 9.58569 44.9629
1.66848 9.58613 44.9643
1.54582 9.58696 44.9666
1.36894 9.60901 45.1066
1.24579 9.6096 45.1074
1.18421 9.60986 45.1076
-0.535052 9.69307 45.6125
-0.597346 9.69267 45.6084
-3.45379 9.8657 46.477
-3.51654 9.86422 46.4661
-3.64192 9.86119 46.4439
-3.76713 9.85809 46.4212
-3.90136 9.87743 46.5447
-3.96401 9.8758 46.5328
-4.02662 9.87414 46.5207
-4.22439 9.89166 46.6312
-4.28702 9.88991 46.6186
-4.48566 9.90724 46.7278
-4.61088 9.90353 46.7012
-4.73589 9.89974 46.6741
-4.87299 9.91865 46.7948
-4.92928 9.90529 46.7066
-6.60472 10.0402 47.3377
-6.79121 10.0324 47.2833
-7.05844 10.0453 47.3615
-7.32625 10.0579 47.4379
-7.59459 10.0703 47.5124
7.39508 9.27846 43.4692
7.33875 9.28105 43.4849
7.15759 9.26202 43.4424
7.08911 9.25491 43.3935
6.97606 9.25979 43.4231
6.91944 9.26219 43.4376
6.86275 9.26458 43.452
6.80657 9.24999 43.4422
6.74978 9.25231 43.4563
6.69293 9.25462 43.4703
6.63602 9.2569 43.4841
6.57904 9.25916 43.4977
6.522 9.26139 43.5112
6.4649 9.26361 43.5245
6.40773 9.2658 43.5377
6.35051 9.26797 43.5507
6.29322 9.27012 43.5636
6.23588 9.27224 43.5763
6.17847 9.27435 43.5889
6.12101 9.27643 43.6013
6.06348 9.27849 43.6136
5.94827 9.28254 43.6377
5.89057 9.28453 43.6495
5.7952 9.30789 43.8023
5.71716 9.29037 43.684
5.62095 9.31363 43.8361
5.54327 9.29602 43.7172
3.93193 9.42408 44.3414
3.75958 9.43785 44.4279
3.63957 9.4402 44.4403
3.57952 9.44134 44.4463
3.51943 9.44246 44.4521
3.45932 9.44355 44.4578
3.39917 9.44462 44.4633
3.33899 9.44567 44.4687
3.27879 9.4467 44.474
3.16457 9.45886 44.5514
3.04988 9.47093 44.6283
2.45729 9.4814 44.7778
2.39639 9.48209 44.7809
2.33546 9.48276 44.7839
2.27452 9.4834 44.7867
2.15258 9.48462 44.7919
1.97439 9.50606 44.8977
1.85243 9.52619 44.9638
1.79114 9.52666 44.9654
1.72983 9.52711 44.9669
1.66851 9.52754 44.9683
1.54584 9.52832 44.9705
1.36896 9.55011 45.1104
1.24581 9.55066 45.1112
1.18422 9.55091 45.1114
-1.79731 9.7233 45.9843
-1.8599 9.72242 45.9773
-1.92247 9.72152 45.9701
-3.45374 9.80331 46.4789
-3.51649 9.80182 46.468
-3.64187 9.7988 46.4458
-3.76708 9.79569 46.4231
-3.90128 9.81481 46.5465
-3.96394 9.81317 46.5346
-4.02655 9.81151 46.5225
-4.22429 9.8288 46.6329
-4.28692 9.82705 46.6202
-4.3495 9.82528 46.6075
-4.48554 9.84416 46.7294
-4.61075 9.84045 46.7027
-6.79087 9.96775 47.2841
-7.05806 9.98045 47.3621
-7.32582 9.99288 47.4383
-7.53227 10.0079 47.5327
-7.59412 10.005 47.5127
-7.86293 10.0169 47.5853
-8.13224 10.0286 47.656
6.977 9.18823 43.4059
6.92041 9.19059 43.4204
6.86374 9.19292 43.4348
6.80702 9.19523 43.449
6.75023 9.19751 43.463
6.69337 9.19978 43.4769
6.63645 9.20202 43.4907
6.57946 9.20424 43.5043
6.52241 9.20644 43.5177
6.4653 9.20861 43.531
6.40813 9.21077 43.5442
6.3509 9.2129 43.5572
6.2936 9.21501 43.57
6.23625 9.2171 43.5827
6.17884 9.21916 43.5952
6.12137 9.22121 43.6076
6.06384 9.22323 43.6198
5.94861 9.22721 43.6439
5.89091 9.22917 43.6556
5.77534 9.23301 43.6787
5.71748 9.2349 43.6901
5.61142 9.24826 43.7772
3.45943 9.38624 44.4626
3.39928 9.38729 44.4681
3.3391 9.38831 44.4735
3.27889 9.38931 44.4787
3.16467 9.40132 44.5561
3.04998 9.41324 44.6329
2.98945 9.41414 44.6374
2.86831 9.41586 44.6459
2.8077 9.41669 44.65
2.74707 9.41749 44.6539
2.68642 9.41827 44.6577
1.12264 9.49214 45.1152
1.05282 9.52929 45.1646
-0.54024 9.59162 45.6441
-0.602571 9.59119 45.64
-0.664891 9.59074 45.6357
-0.789491 9.58977 45.6268
-0.976234 9.6094 45.754
-1.04416 9.62794 45.7744
-1.10108 9.6082 45.7436
-1.22586 9.60691 45.7326
-1.35167 9.62689 45.8633
-1.41419 9.62616 45.8573
-1.47669 9.62541 45.8512
-1.53917 9.62464 45.8449
-1.66993 9.64228 45.8574
-1.79733 9.66215 45.987
-1.85993 9.66126 45.9799
-1.9225 9.66035 45.9727
-3.51644 9.73943 46.47
-3.64182 9.7364 46.4478
-6.60407 9.91086 47.3392
-6.79054 9.90312 47.2848
-7.05768 9.91562 47.3627
-7.11963 9.91292 47.3438
-7.32539 9.92784 47.4388
-7.5318 9.94265 47.533
-7.59364 9.9398 47.5131
-7.65542 9.93693 47.493
7.39616 9.16925 43.4836
7.33981 9.17176 43.4993
3.92481 9.30021 44.2848
3.75986 9.32349 44.4378
3.63983 9.32573 44.4501
3.57977 9.32681 44.456
3.51967 9.32788 44.4618
3.45955 9.32892 44.4674
3.39939 9.32994 44.4729
3.3392 9.33094 44.4783
3.27899 9.33191 44.4835
3.16477 9.34377 44.5607
3.05007 9.35555 44.6375
2.98954 9.35641 44.642
2.92897 9.35726 44.6463
2.86839 9.35809 44.6505
2.80778 9.35889 44.6545
2.74714 9.35967 44.6584
2.68649 9.36043 44.6622
1.06104 9.43331 45.1188
0.820153 9.45424 45.2551
0.320446 9.51207 45.4335
0.0721601 9.51145 45.4242
-0.111324 9.53169 45.5564
-0.23579 9.53111 45.55
-0.659667 9.51146 45.6134
-0.970784 9.52973 45.7313
-1.09557 9.52851 45.7209
-1.34595 9.54683 45.8404
-1.40845 9.54609 45.8344
-1.47092 9.54534 45.8282
-1.53337 9.54456 45.8219
-1.78533 9.56234 45.9379
-3.45364 9.67851 46.483
-3.51639 9.67702 46.472
-3.64177 9.67399 46.4497
-3.76698 9.67087 46.4269
-3.90114 9.68953 46.5502
-3.96379 9.68789 46.5382
-4.0264 9.68623 46.5262
-4.2241 9.70307 46.6363
-4.3493 9.69955 46.6108
-4.482 9.71597 46.6111
-4.61834 9.7344 46.7324
-4.6809 9.73251 46.7188
-4.7434 9.73061 46.7051
-4.88862 9.76917 46.8526
-4.94489 9.75603 46.764
7.39669 9.11462 43.4909
7.328 9.10768 43.4423
7.14701 9.08873 43.3996
7.09097 9.07429 43.3904
7.03449 9.07661 43.4051
6.97795 9.0789 43.4197
6.92134 9.08117 43.4341
6.86466 9.08342 43.4484
6.80792 9.08565 43.4625
6.75111 9.08786 43.4765
6.69423 9.09005 43.4904
6.6373 9.09221 43.504
6.5803 9.09436 43.5175
6.52323 9.09648 43.5309
6.46611 9.09858 43.5441
6.40892 9.10066 43.5572
6.35167 9.10271 43.5701
6.29437 9.10475 43.5829
6.237 9.10676 43.5955
6.17957 9.10875 43.6079
6.12209 9.11073 43.6202
6.06454 9.11267 43.6324
6.00694 9.1146 43.6444
5.94928 9.11651 43.6563
5.89157 9.11839 43.668
5.77598 9.1221 43.6909
5.7181 9.12392 43.7022
5.61203 9.13695 43.7891
5.54415 9.12925 43.7351
4.05189 9.25067 44.343
3.93238 9.25307 44.3566
3.76 9.26629 44.4428
3.63996 9.26848 44.4551
3.57989 9.26953 44.461
3.51979 9.27057 44.4667
3.45966 9.27159 44.4723
3.3995 9.27258 44.4778
3.33931 9.27355 44.4831
3.27909 9.2745 44.4882
3.16486 9.28621 44.5655
3.05016 9.29783 44.6421
2.98962 9.29868 44.6466
2.92906 9.2995 44.6509
2.86847 9.3003 44.6551
2.80785 9.30108 44.6591
2.74721 9.30184 44.6629
2.68655 9.30257 44.6667
-0.235831 9.47107 45.5533
-1.92256 9.538 45.9781
-1.98511 9.53706 45.9707
-2.11361 9.55632 46.0993
-3.51635 9.61461 46.474
-3.64172 9.61158 46.4517
-3.76693 9.60846 46.4289
-3.90107 9.62689 46.552
-3.96372 9.62525 46.5401
-4.02633 9.62359 46.528
-4.22401 9.6402 46.638
-6.60342 9.78155 47.3407
-6.72778 9.77644 47.3045
-6.78986 9.77386 47.2862
-6.99491 9.78861 47.3827
-7.05692 9.78595 47.3639
-7.11886 9.78327 47.3449
-7.26261 9.80052 47.4591
-7.32454 9.79777 47.4397
-7.3864 9.79501 47.4202
-7.53086 9.81216 47.5337
-7.6125 9.85127 47.5689
-7.66438 9.82745 47.5211
-7.88158 9.86275 47.6413
-7.9433 9.8598 47.6205
-8.08948 9.87698 47.7332
-8.15116 9.87396 47.7119
-8.27429 9.86789 47.6691
7.09146 9.01968 43.3974
7.03497 9.02195 43.4121
6.97842 9.02421 43.4266
6.9218 9.02644 43.441
6.86512 9.02865 43.4553
6.80836 9.03084 43.4694
6.75155 9.03301 43.4833
6.69467 9.03516 43.4971
6.63772 9.03729 43.5107
6.58071 9.03939 43.5242
6.52364 9.04147 43.5375
6.46651 9.04354 43.5507
6.40932 9.04558 43.5637
6.35206 9.0476 43.5766
6.29475 9.04959 43.5893
6.23737 9.05157 43.6019
6.17994 9.05353 43.6143
6.12244 9.05546 43.6266
6.06489 9.05737 43.6387
6.00729 9.05926 43.6507
5.94962 9.06114 43.6625
5.8919 9.06298 43.6742
5.7763 9.06662 43.6971
5.71841 9.0684 43.7083
5.61233 9.08127 43.7952
3.33941 9.21616 44.4879
3.27919 9.21708 44.493
3.16496 9.22864 44.5702
3.05025 9.24011 44.6468
2.98971 9.24093 44.6512
2.92914 9.24173 44.6555
2.86854 9.24251 44.6596
2.80792 9.24326 44.6636
2.74728 9.24399 44.6675
2.68662 9.2447 44.6712
1.12922 9.33521 45.2649
1.06104 9.31526 45.1264
0.937805 9.31545 45.1256
0.820156 9.33563 45.2624
0.758332 9.33565 45.2615
0.696505 9.33564 45.2604
0.634678 9.33562 45.2592
0.506531 9.35403 45.2814
0.387076 9.37414 45.4173
0.325024 9.37401 45.4153
0.258301 9.3925 45.4385
0.200928 9.37367 45.411
0.0768471 9.37326 45.406
-0.106472 9.39288 45.5377
-0.230882 9.39223 45.5312
-0.360317 9.4103 45.5496
-2.11363 9.49489 46.1019
-2.23893 9.49283 46.086
-2.36413 9.49068 46.0695
-2.55654 9.50838 46.1881
-2.6192 9.5072 46.1792
-2.68183 9.50601 46.1702
-2.95144 9.56128 46.3295
-3.01416 9.55997 46.3196
-3.96365 9.5626 46.5419
-4.22391 9.57732 46.6397
-4.34911 9.57381 46.6142
-4.94469 9.62949 46.7671
-6.72745 9.7118 47.3052
-6.78953 9.70923 47.2869
-8.27375 9.80222 47.6693
7.39777 9.0053 43.5055
6.6951 8.98025 43.5038
6.63815 8.98234 43.5174
6.52405 8.98645 43.5442
6.46691 8.98848 43.5573
6.40971 8.99048 43.5703
6.35245 8.99246 43.5831
6.29512 8.99442 43.5958
4.04458 9.12713 44.2866
3.93266 9.139 44.3669
3.8655 9.13052 44.3067
3.7531 9.14226 44.3861
3.64021 9.15393 44.465
3.58013 9.15494 44.4708
3.52002 9.15592 44.4765
3.45988 9.15688 44.4821
3.39971 9.15782 44.4875
3.33951 9.15875 44.4927
3.27928 9.15964 44.4978
3.15874 9.16138 44.5076
3.05034 9.18238 44.6515
2.98979 9.18317 44.6559
2.86862 9.1847 44.6642
2.808 9.18543 44.6682
2.74735 9.18614 44.672
2.68668 9.18683 44.6757
1.06104 9.25621 45.1302
0.937796 9.25637 45.1293
-2.11193 9.42307 46.0326
-2.23896 9.43138 46.0885
-2.30157 9.43031 46.0804
-2.36415 9.42922 46.0721
-2.55655 9.44668 46.1905
-2.61921 9.4455 46.1816
-2.68184 9.4443 46.1726
-2.80699 9.44184 46.1541
-2.93804 9.46022 46.2798
-3.00069 9.45891 46.2701
-3.06331 9.45758 46.2601
-3.25798 9.47448 46.3749
-3.38327 9.47162 46.3538
-4.95086 9.57703 46.8429
-5.01338 9.57503 46.8285
-7.67345 9.71782 47.5495
-7.94234 9.72882 47.6211
-8.08844 9.74556 47.7336
-8.27322 9.73656 47.6694
7.3983 8.95061 43.5128
7.32982 8.92708 43.4395
7.14887 8.90819 43.3967
7.09244 8.9104 43.4115
7.03593 8.9126 43.4261
6.97937 8.91477 43.4406
6.92273 8.91693 43.4549
6.86603 8.91906 43.469
6.80926 8.92117 43.4831
6.75243 8.92326 43.4969
6.69553 8.92533 43.5106
6.63857 8.92738 43.5242
6.58155 8.92941 43.5376
6.52446 8.93142 43.5508
6.46731 8.9334 43.5639
6.4101 8.93537 43.5769
6.35283 8.93731 43.5896
6.2955 8.93924 43.6023
6.23811 8.94114 43.6148
6.18066 8.94302 43.6271
6.12316 8.94488 43.6393
6.06559 8.94672 43.6514
6.00797 8.94854 43.6633
5.95029 8.95034 43.675
5.89256 8.95212 43.6866
5.83477 8.95388 43.6981
5.77693 8.95561 43.7094
5.71903 8.95733 43.7205
5.60307 8.9607 43.7424
5.54502 8.96235 43.7531
4.05235 9.07971 44.3585
3.92536 9.07245 44.3053
3.86563 9.07353 44.3118
3.75323 9.08512 44.3912
3.64033 9.09664 44.47
3.58025 9.09762 44.4758
3.52013 9.09858 44.4815
3.45999 9.09951 44.487
3.39981 9.10043 44.4923
3.33961 9.10132 44.4976
3.27937 9.1022 44.5027
3.15882 9.10388 44.5124
3.05043 9.12463 44.6562
2.98987 9.1254 44.6605
2.86869 9.12688 44.6689
2.80806 9.12758 44.6728
2.74741 9.12827 44.6766
2.68674 9.12893 44.6802
-0.111479 9.29158 45.5699
-0.235966 9.29089 45.5633
-0.298198 9.29052 45.5598
-0.36042 9.29012 45.5562
-2.11196 9.36174 46.0352
-2.23898 9.36993 46.0911
-2.3016 9.36885 46.0829
-2.36418 9.36776 46.0746
-2.42674 9.36664 46.0661
-2.55656 9.38498 46.193
-2.61922 9.38379 46.184
-2.68185 9.38259 46.175
-2.80701 9.38011 46.1565
-2.93803 9.39827 46.2821
-3.00069 9.39696 46.2723
-3.06331 9.39562 46.2624
-3.12589 9.39427 46.2523
-5.01327 9.51164 46.8301
-5.21386 9.52704 46.9351
-5.3388 9.52287 46.905
-5.47183 9.53876 46.9008
-5.6026 9.53583 46.9927
-5.73577 9.55164 46.9874
-6.0004 9.56427 47.0723
-6.27464 9.59704 47.1822
-6.72678 9.58251 47.3067
-6.78886 9.57996 47.2884
-6.99378 9.59407 47.3846
-7.12729 9.60946 47.374
-7.28084 9.64694 47.5159
-7.3949 9.6207 47.4491
-7.5394 9.6373 47.5626
-7.66302 9.63167 47.5222
-7.94186 9.66333 47.6214
-8.08792 9.67985 47.7338
-8.21117 9.67389 47.6911
7.20574 8.85136 43.389
7.14937 8.85356 43.4038
7.09293 8.85574 43.4186
7.03642 8.85789 43.4331
6.97984 8.86003 43.4476
6.92319 8.86214 43.4618
6.86648 8.86424 43.476
6.80971 8.86631 43.4899
6.75287 8.86836 43.5037
6.69596 8.87039 43.5174
6.63899 8.8724 43.5309
6.58196 8.87439 43.5443
6.52487 8.87636 43.5575
6.46771 8.87831 43.5705
6.4105 8.88024 43.5834
6.35322 8.88214 43.5962
6.29588 8.88403 43.6088
6.23848 8.8859 43.6213
6.18103 8.88774 43.6336
6.12351 8.88957 43.6457
6.06594 8.89137 43.6577
6.00831 8.89316 43.6696
5.95063 8.89492 43.6813
5.89289 8.89666 43.6929
5.83509 8.89839 43.7043
5.77724 8.90009 43.7155
5.71934 8.90177 43.7266
5.60337 8.90507 43.7484
5.5453 8.90669 43.7591
3.39991 9.04302 44.4972
3.3397 9.04389 44.5024
3.27946 9.04473 44.5075
3.1589 9.04637 44.5172
3.05051 9.06687 44.6609
2.98995 9.06762 44.6652
2.86876 9.06904 44.6735
2.80813 9.06973 44.6774
2.74747 9.07039 44.6812
2.6868 9.07103 44.6848
1.12926 9.15749 45.2763
1.06103 9.1381 45.1378
0.93353 9.15648 45.1618
0.811433 9.19447 45.3241
0.753921 9.17603 45.2978
0.692052 9.17598 45.2966
0.630182 9.17591 45.2953
0.568311 9.17582 45.2939
0.50644 9.17571 45.2923
0.320274 9.21346 45.4514
0.196094 9.21305 45.4468
0.13401 9.21281 45.4443
0.0719298 9.21255 45.4417
-0.112899 9.22159 45.5031
-0.236015 9.23082 45.5667
-0.298249 9.23043 45.5632
-0.360474 9.23002 45.5595
-2.11199 9.3004 46.0378
-2.23901 9.30846 46.0936
-5.01316 9.44825 46.8316
-5.07562 9.44624 46.817
-5.21372 9.46342 46.9366
-5.33866 9.45926 46.9064
-5.46337 9.45503 46.8757
-5.60243 9.47201 46.9939
-5.72707 9.46761 46.9621
-5.99147 9.47992 47.0466
-8.08739 9.61415 47.734
-8.21064 9.60821 47.6913
-8.27215 9.60522 47.6697
7.39938 8.84118 43.5276
6.75331 8.81344 43.5106
