-5.04699 4.36517 43.6842
-5.10484 4.36373 43.6704
-5.22039 4.36084 43.6425
-5.27809 4.3594 43.6284
-5.33573 4.35795 43.6141
-5.39333 4.3565 43.5999
-5.50835 4.3536 43.571
-5.63496 4.35372 43.663
-5.69244 4.35226 43.6481
-5.74987 4.3508 43.6331
-5.80724 4.34933 43.6181
8.44104 4.98491 47.7721
8.36323 4.96588 47.6761
8.27028 4.95967 47.5354
8.20893 4.9593 47.5493
6.95872 4.892 46.9473
6.89715 4.89149 46.9579
6.35579 4.8455 46.6802
6.29418 4.84492 46.6894
6.23252 4.84434 46.6984
6.14714 4.83852 46.5605
6.08557 4.83792 46.5692
6.02394 4.83732 46.5778
5.96226 4.83672 46.5862
5.90054 4.8361 46.5945
5.8275 4.83289 46.5295
5.75462 4.82968 46.4645
4.2656 4.7324 45.9205
4.20392 4.73161 45.925
4.01051 4.72687 45.8675
3.94071 4.72372 45.8012
3.87907 4.72291 45.805
3.81739 4.72209 45.8087
3.75569 4.72126 45.8122
3.69396 4.72043 45.8156
3.57042 4.71875 45.8219
3.50124 4.7156 45.7551
3.43223 4.71244 45.6882
3.37055 4.71158 45.6909
3.30886 4.71072 45.6935
3.24713 4.70985 45.6959
3.18539 4.70898 45.6982
1.7408 4.64359 45.2495
1.68353 4.62738 45.2226
1.62633 4.61116 45.1956
1.56491 4.61014 45.1945
1.50348 4.6091 45.1933
1.38061 4.60703 45.1904
1.31522 4.60392 45.1218
1.25002 4.60081 45.053
1.12748 4.5987 45.0491
1.0662 4.59764 45.047
1.00492 4.59658 45.0447
0.943647 4.5955 45.0423
0.882368 4.59443 45.0398
-1.17443 4.48646 44.5177
-1.23503 4.48342 44.4467
-1.41594 4.47969 44.4258
-1.59628 4.47414 44.3397
-1.65639 4.47288 44.3322
-1.77652 4.47035 44.3168
-1.83028 4.45393 44.2845
-1.89025 4.45266 44.2765
-1.9502 4.45138 44.2684
-2.01012 4.45009 44.2602
-2.06361 4.43365 44.2276
-2.12345 4.43235 44.2192
-2.18325 4.43106 44.2107
-2.24303 4.42976 44.202
-2.30278 4.42845 44.1933
-2.3625 4.42715 44.1844
-2.42219 4.42583 44.1754
-3.94699 4.36035 43.8552
-4.00562 4.35896 43.8433
-4.06421 4.35757 43.8313
-4.12276 4.35618 43.8192
-4.18126 4.35479 43.807
-4.23972 4.35339 43.7947
-4.29813 4.35199 43.7823
-4.3565 4.35059 43.7697
-4.41482 4.34919 43.7571
-5.22063 4.30185 43.6448
-5.27832 4.30041 43.6307
-5.33596 4.29897 43.6165
-5.39355 4.29753 43.6022
-5.50858 4.29464 43.5733
-5.69264 4.29315 43.6503
-5.75006 4.29169 43.6353
-5.80743 4.29023 43.6202
8.364 4.90444 47.6862
8.27103 4.89841 47.5454
8.20966 4.898 47.5593
6.95916 4.83124 46.9562
6.8984 4.81525 46.9362
6.8238 4.81207 46.872
6.74934 4.80896 46.8081
6.68879 4.79299 46.7881
6.62725 4.7924 46.798
6.56566 4.79182 46.8078
6.4916 4.78869 46.7437
6.41768 4.78557 46.6793
6.35611 4.78496 46.6886
6.2945 4.78435 46.6978
6.14743 4.7781 46.5688
6.08584 4.77748 46.5775
6.02421 4.77685 46.586
4.01048 4.6669 45.8743
3.94067 4.66383 45.808
3.87902 4.66299 45.8118
3.81734 4.66215 45.8154
3.75563 4.6613 45.8189
3.69389 4.66045 45.8222
3.50115 4.65565 45.7617
3.43212 4.65257 45.6947
3.37044 4.6517 45.6974
3.30874 4.65082 45.6999
3.24701 4.64993 45.7023
3.17842 4.64685 45.6352
1.56465 4.55051 45.2
1.50322 4.54947 45.1987
1.38034 4.54736 45.1958
1.31494 4.54434 45.1271
1.24973 4.54132 45.0583
1.18845 4.54025 45.0564
1.12718 4.53918 45.0544
1.0659 4.53811 45.0522
1.00462 4.53703 45.0499
0.94334 4.53595 45.0475
0.882058 4.53486 45.0449
0.820776 4.53376 45.0423
0.698214 4.53157 45.0365
-0.993388 4.43085 44.5414
-1.05388 4.42962 44.535
-1.1748 4.42714 44.5218
-1.2354 4.42419 44.4508
-1.41632 4.42045 44.4298
-1.47639 4.41749 44.3584
-2.18363 4.37194 44.2143
-2.2434 4.37064 44.2057
-2.30315 4.36933 44.1969
-2.36287 4.36802 44.188
-2.42256 4.36671 44.1789
-3.94732 4.30134 43.8581
-4.00595 4.29995 43.8462
-4.06454 4.29857 43.8342
-4.12308 4.29718 43.822
-4.18159 4.29579 43.8098
-4.24004 4.29439 43.7975
-4.29845 4.293 43.7851
-4.35682 4.2916 43.7725
-4.41514 4.2902 43.7599
-4.47341 4.2888 43.7471
-4.53164 4.2874 43.7343
-4.58194 4.27086 43.6978
-4.64005 4.26945 43.6847
-4.74815 4.25149 43.6349
-4.80609 4.25008 43.6217
-4.92672 4.24861 43.6557
-5.10533 4.2457 43.6752
-5.22086 4.24284 43.6472
-5.27856 4.24141 43.6331
-5.3362 4.23998 43.6188
-5.39378 4.23855 43.6045
-5.45132 4.23711 43.5901
-5.5088 4.23568 43.5755
-5.69283 4.23402 43.6525
-5.80762 4.23113 43.6224
21.7757 11.611 113.745
8.21039 4.83667 47.5693
6.68918 4.73237 46.7968
6.47954 4.72566 46.6785
6.41802 4.72503 46.6879
6.35644 4.7244 46.6971
6.14771 4.71766 46.5771
6.08612 4.717 46.5858
6.02447 4.71634 46.5943
5.96278 4.71568 46.6026
5.8167 4.70957 46.4727
5.75505 4.70889 46.4806
4.40401 4.63362 46.0946
4.32468 4.62842 45.9577
4.2656 4.61241 45.9345
4.20391 4.61157 45.9389
4.01045 4.6069 45.8812
3.94062 4.60391 45.8149
3.87896 4.60305 45.8186
3.81728 4.60219 45.8222
3.75556 4.60132 45.8256
3.69382 4.60045 45.8289
3.50105 4.59569 45.7683
1.24943 4.4818 45.0636
1.18816 4.48072 45.0617
1.12688 4.47964 45.0596
1.0656 4.47856 45.0574
1.00431 4.47746 45.0551
0.94303 4.47637 45.0526
0.881745 4.47527 45.0501
0.817282 4.47233 44.9809
0.633707 4.469 44.972
0.569708 4.46605 44.9024
0.518442 4.43477 44.8484
0.452475 4.44871 44.8703
0.391426 4.44758 44.8667
-1.05469 4.36867 44.4748
-1.23578 4.36495 44.4549
-1.41661 4.35958 44.3697
-1.47679 4.35832 44.3625
-1.59707 4.3558 44.3477
-1.65717 4.35453 44.3401
-1.71725 4.35326 44.3324
-1.77731 4.35199 44.3246
-1.83734 4.35071 44.3166
-1.89735 4.34943 44.3086
-1.95733 4.34815 44.3004
-3.88897 4.24369 43.8728
-3.94765 4.24231 43.861
-4.00628 4.24093 43.8491
-4.06487 4.23955 43.837
-4.12341 4.23816 43.8249
-4.18191 4.23677 43.8127
-4.24036 4.23539 43.8003
-4.29877 4.234 43.7879
-4.35714 4.2326 43.7753
-5.2211 4.18383 43.6496
-5.27879 4.18241 43.6354
-5.33643 4.18098 43.6212
-5.39401 4.17956 43.6068
-5.45154 4.17813 43.5924
-5.50902 4.1767 43.5778
-5.69302 4.17489 43.6547
8.52069 4.78762 47.8336
8.44341 4.80014 47.8028
8.36554 4.78145 47.7065
8.27251 4.77579 47.5656
8.21111 4.77531 47.5794
6.47988 4.66513 46.6871
6.41835 4.66447 46.6964
6.35677 4.66381 46.7056
6.148 4.65719 46.5855
6.08639 4.6565 46.5941
6.02474 4.65582 46.6025
5.81692 4.64916 46.4809
5.75526 4.64846 46.4887
4.2656 4.55238 45.9416
4.2039 4.55152 45.9459
4.0022 4.54485 45.8179
3.94057 4.54397 45.8217
3.87891 4.54309 45.8254
3.81722 4.54221 45.8289
3.75549 4.54132 45.8323
3.68608 4.53841 45.7659
3.49357 4.5337 45.7051
3.4319 4.53278 45.7079
3.37021 4.53187 45.7104
3.30849 4.53095 45.7129
3.24675 4.53002 45.7152
3.17814 4.52711 45.6481
1.7442 4.44948 45.2402
1.68274 4.44843 45.2392
1.62128 4.44737 45.2382
1.55981 4.44631 45.2369
1.50268 4.43014 45.2095
1.31041 4.42335 45.0707
1.24914 4.42227 45.0689
1.18786 4.42118 45.067
1.12658 4.42008 45.0649
1.06529 4.41898 45.0626
1.004 4.41788 45.0603
0.942717 4.41677 45.0578
0.881429 4.41566 45.0552
0.820141 4.41455 45.0525
-1.417 4.3004 44.3737
-1.47718 4.29914 44.3665
-1.53733 4.29787 44.3591
-1.59746 4.29661 44.3516
-1.65757 4.29534 44.344
-1.71765 4.29406 44.3363
-1.77771 4.29279 44.3284
-1.83774 4.29151 44.3205
-1.89775 4.29022 44.3124
-1.95773 4.28894 44.3042
-2.01768 4.28765 44.2959
-2.07117 4.27132 44.2631
-2.13104 4.27002 44.2546
-2.19088 4.26872 44.246
-2.25069 4.26742 44.2372
-2.31047 4.26611 44.2283
-2.36363 4.24975 44.1952
-2.42331 4.24843 44.1861
-3.94798 4.18327 43.864
-4.00661 4.1819 43.852
-4.06519 4.18052 43.8399
-4.12374 4.17914 43.8278
-4.18223 4.17775 43.8155
-4.24069 4.17637 43.8031
-4.29909 4.17498 43.7907
-4.35746 4.1736 43.7781
-4.41577 4.17221 43.7654
-4.47404 4.17082 43.7526
-4.53227 4.16943 43.7398
-4.59044 4.16803 43.7268
-4.64857 4.16664 43.7137
-4.76469 4.16384 43.6873
8.5215 4.72593 47.8439
8.36631 4.71992 47.7167
8.27325 4.71443 47.5757
8.21184 4.71392 47.5895
6.96049 4.64878 46.9833
6.8997 4.63283 46.963
6.82504 4.62987 46.8987
6.75147 4.61171 46.8044
6.68996 4.61104 46.8144
6.48023 4.60457 46.6957
6.41869 4.60388 46.705
6.35709 4.60319 46.7142
6.14828 4.59669 46.5939
6.08666 4.59598 46.6025
6.025 4.59526 46.6108
4.00216 4.48491 45.8248
3.94052 4.48401 45.8286
3.87885 4.48311 45.8322
3.81715 4.4822 45.8357
3.75542 4.48129 45.8391
3.68599 4.47846 45.7726
3.49346 4.47379 45.7118
3.43179 4.47286 45.7144
3.37009 4.47192 45.717
3.30837 4.47098 45.7194
3.24662 4.47004 45.7217
3.18134 4.45211 45.6273
3.10954 4.46436 45.5872
1.56385 4.37153 45.2163
1.49817 4.36877 45.148
1.31012 4.36382 45.0761
1.24884 4.36272 45.0743
1.18755 4.36161 45.0723
1.12627 4.36051 45.0701
1.06498 4.3594 45.0679
1.00369 4.35828 45.0655
0.88111 4.35604 45.0604
0.816628 4.35327 44.9911
0.630119 4.34823 44.9157
0.569018 4.34709 44.9124
-1.00033 4.26788 44.5788
-1.05545 4.25017 44.4832
-1.23655 4.24641 44.4631
-1.29698 4.24373 44.392
-1.4174 4.24121 44.3778
-1.47757 4.23994 44.3705
-1.53773 4.23867 44.3631
-1.59786 4.2374 44.3556
-1.65797 4.23613 44.348
-1.71805 4.23485 44.3402
-1.77811 4.23357 44.3324
-1.83814 4.23229 44.3244
-4.00694 4.12285 43.8549
-4.06552 4.12148 43.8428
-4.12406 4.1201 43.8307
-4.18256 4.11872 43.8184
-4.24101 4.11734 43.806
-4.29942 4.11596 43.7935
-4.35778 4.11458 43.7809
-4.41609 4.1132 43.7682
-4.47436 4.11181 43.7554
-4.53258 4.11042 43.7425
-4.59076 4.10904 43.7295
-4.64888 4.10765 43.7164
-4.70696 4.10626 43.7032
-4.76499 4.10486 43.6899
-4.82297 4.10347 43.6765
-4.93879 4.10068 43.6494
-5.1091 4.08254 43.6453
-5.22988 4.08086 43.678
-5.28759 4.07946 43.6638
-5.40285 4.07664 43.635
-5.452 4.06014 43.597
-5.50947 4.05873 43.5824
-5.56689 4.05731 43.5677
-5.69341 4.0566 43.6591
-5.81682 4.06891 43.6524
8.42855 4.65889 47.7128
8.36708 4.65835 47.7269
8.274 4.65304 47.5859
8.21257 4.65249 47.5996
6.75187 4.55104 46.8133
6.69035 4.55034 46.8232
6.48057 4.54399 46.7044
6.41902 4.54327 46.7136
6.35741 4.54254 46.7227
6.14856 4.53616 46.6024
6.08693 4.53542 46.6108
6.02526 4.53468 46.6192
4.39521 4.45095 46.0451
4.32466 4.44821 45.9791
4.26559 4.43225 45.9557
4.20388 4.43134 45.96
4.00211 4.42494 45.8318
3.94047 4.42402 45.8355
3.87879 4.4231 45.8391
3.81708 4.42218 45.8426
3.75535 4.42124 45.8459
3.68591 4.41849 45.7794
1.24854 4.30315 45.0796
1.18725 4.30203 45.0776
1.12596 4.30091 45.0754
1.06467 4.29979 45.0731
1.00338 4.29866 45.0707
0.880789 4.2964 45.0655
0.816297 4.29371 44.9963
0.629773 4.28874 44.9207
0.568669 4.28759 44.9175
0.507567 4.28644 44.914
0.44647 4.28528 44.9105
-1.23714 4.18579 44.403
-1.29738 4.18453 44.3961
-1.4178 4.182 44.3818
-1.47797 4.18073 44.3745
-1.53813 4.17946 44.3671
-1.59826 4.17818 44.3596
-1.65836 4.1769 44.3519
-1.71845 4.17562 44.3442
-1.77851 4.17434 44.3363
-1.83854 4.17306 44.3283
-1.89855 4.17177 44.3201
-1.95853 4.17048 44.3119
-2.01848 4.16918 44.3035
-2.07841 4.16789 44.295
-2.13831 4.16659 44.2864
-3.83126 4.0679 43.8935
-3.88997 4.06654 43.8817
-3.94864 4.06517 43.8698
-4.00727 4.0638 43.8578
-4.06585 4.06243 43.8457
-4.12439 4.06106 43.8335
-4.18288 4.05968 43.8212
-4.24133 4.05831 43.8088
-4.29974 4.05693 43.7963
-4.3581 4.05555 43.7837
-4.41641 4.05417 43.771
-4.47468 4.05279 43.7582
-4.53289 4.05141 43.7452
8.36785 4.59675 47.7372
8.27474 4.59162 47.5961
8.2133 4.59103 47.6097
6.48091 4.48337 46.7131
6.41935 4.48262 46.7223
6.35773 4.48187 46.7313
6.27195 4.47714 46.5935
6.14883 4.47561 46.6108
6.0872 4.47484 46.6192
6.02551 4.47407 46.6275
5.81918 4.45269 46.4761
5.75754 4.45189 46.4838
4.26558 4.37215 45.9628
4.19535 4.36948 45.8969
4.00206 4.36495 45.8387
3.94041 4.36402 45.8424
3.87873 4.36307 45.846
3.81701 4.36212 45.8494
3.75527 4.36117 45.8527
3.68582 4.3585 45.7861
3.61653 4.35583 45.7194
3.49324 4.3539 45.7251
3.43155 4.35293 45.7277
3.36984 4.35196 45.7301
3.30811 4.35098 45.7325
3.24635 4.35 45.7347
3.18457 4.34901 45.7367
1.73917 4.28535 45.2833
1.68193 4.26929 45.256
1.55463 4.28207 45.2796
1.50186 4.251 45.2259
1.43208 4.24692 45.0904
1.30952 4.24468 45.0869
1.24823 4.24356 45.085
1.18694 4.24243 45.0829
1.12565 4.2413 45.0807
1.06436 4.24016 45.0784
1.00306 4.23902 45.076
0.880466 4.23674 45.0707
0.815964 4.23413 45.0014
-1.53853 4.12023 44.3711
-1.59866 4.11895 44.3636
-1.65877 4.11767 44.3559
-1.71885 4.11638 44.3481
-1.77891 4.1151 44.3402
-1.83894 4.11381 44.3321
-1.89895 4.11252 44.324
-1.95893 4.11123 44.3157
-2.01889 4.10993 44.3073
-2.07881 4.10863 44.2988
-2.13871 4.10733 44.2902
-2.19858 4.10603 44.2815
-2.25843 4.10473 44.2726
-2.31824 4.10342 44.2637
-2.37139 4.08717 44.2303
-2.43777 4.1008 44.2454
-4.0076 4.00473 43.8608
-4.12472 4.002 43.8364
-4.18321 4.00063 43.8241
-4.30006 3.99789 43.7991
-4.35842 3.99651 43.7865
-4.41673 3.99514 43.7738
-4.47499 3.99377 43.7609
-4.53321 3.99239 43.748
-4.59138 3.99101 43.7349
-4.6495 3.98964 43.7218
-4.70758 3.98826 43.7086
-4.7656 3.98688 43.6952
-4.82358 3.9855 43.6818
-4.93938 3.98273 43.6546
-4.99721 3.98135 43.6409
-5.11272 3.97858 43.6131
-5.23871 3.97771 43.7066
8.36861 4.53511 47.7474
8.27548 4.53017 47.6063
8.21402 4.52955 47.6199
6.97592 4.45282 47.0543
6.90098 4.45015 46.99
6.81414 4.43037 46.8211
6.75266 4.42961 46.831
6.69112 4.42885 46.8408
6.48125 4.42273 46.7218
6.41968 4.42195 46.7309
6.35805 4.42117 46.7399
6.27224 4.41662 46.6021
6.14911 4.41503 46.6193
6.08746 4.41424 46.6277
4.00201 4.30494 45.8457
3.94035 4.30398 45.8494
3.87866 4.30302 45.8529
3.75519 4.30108 45.8595
3.68573 4.29849 45.7929
3.61642 4.2959 45.7262
3.55479 4.29492 45.729
3.49312 4.29393 45.7317
3.43143 4.29294 45.7343
3.36971 4.29195 45.7367
3.24621 4.28995 45.7412
3.17755 4.28735 45.674
1.43178 4.18735 45.0958
1.3705 4.18622 45.0941
1.30921 4.18509 45.0923
1.24792 4.18395 45.0903
1.18663 4.18281 45.0883
1.12534 4.18167 45.086
1.06404 4.18052 45.0837
1.00274 4.17937 45.0812
0.815628 4.17454 45.0066
0.751301 4.17203 44.9372
0.629073 4.1697 44.9309
0.567963 4.16853 44.9276
0.506857 4.16735 44.9241
0.445754 4.16618 44.9205
-1.00736 4.10454 44.6165
-1.06244 4.08716 44.5204
-1.12325 4.08475 44.4495
-1.23793 4.06735 44.4113
-1.29817 4.06608 44.4043
-1.35839 4.06481 44.3972
-1.41859 4.06354 44.39
-1.47877 4.06226 44.3826
-1.53893 4.06098 44.3752
-1.59906 4.0597 44.3676
-1.65917 4.05841 44.3599
-1.71925 4.05713 44.3521
-1.77931 4.05584 44.3441
-1.83935 4.05455 44.3361
-1.89935 4.05326 44.3279
-1.95934 4.05196 44.3196
-2.01929 4.05066 44.3112
-4.30038 3.93883 43.802
-4.35874 3.93747 43.7893
-4.47531 3.93473 43.7637
-4.53352 3.93336 43.7507
-4.59169 3.93199 43.7377
-4.64981 3.93062 43.7245
-4.70788 3.92924 43.7112
-4.76591 3.92787 43.6979
-4.82388 3.9265 43.6844
-4.93968 3.92375 43.6572
-4.99751 3.92237 43.6435
-5.10481 3.9047 43.5922
-5.28833 3.90222 43.671
-5.412 3.91442 43.6658
-5.46957 3.91304 43.6511
-5.52708 3.91165 43.6364
-5.58454 3.91026 43.6216
-5.6993 3.90749 43.5917
-5.81384 3.90471 43.5614
8.43089 4.4741 47.7438
8.27622 4.46869 47.6165
8.21475 4.46803 47.63
6.96382 4.37484 46.958
6.90225 4.37406 46.9683
6.81455 4.36964 46.8301
6.75305 4.36885 46.84
6.6915 4.36806 46.8497
6.48159 4.36206 46.7305
6.42001 4.36125 46.7396
6.35837 4.36044 46.7486
6.27254 4.35607 46.6106
6.14938 4.35443 46.6278
6.08773 4.3536 46.6361
6.02602 4.35277 46.6443
4.4634 4.28784 46.1616
4.39522 4.27029 46.0668
4.32463 4.26778 46.0007
4.26555 4.25187 45.9771
4.19529 4.24937 45.9111
4.1252 4.24686 45.8451
4.00195 4.24491 45.8527
3.94029 4.24393 45.8563
3.87859 4.24294 45.8598
3.75511 4.24096 45.8663
3.68563 4.23845 45.7997
3.61632 4.23594 45.733
3.55467 4.23494 45.7358
3.493 4.23393 45.7384
1.18632 4.12317 45.0936
1.12502 4.12201 45.0914
1.06372 4.12086 45.089
0.998925 4.11843 45.02
0.812072 4.11367 44.9454
0.750953 4.1125 44.9424
0.689835 4.11133 44.9392
0.62872 4.11015 44.936
0.567607 4.10897 44.9326
0.506497 4.10779 44.9291
0.445392 4.1066 44.9255
-1.29857 4.00684 44.4085
-1.35879 4.00556 44.4013
-1.419 4.00428 44.3941
-1.47917 4.003 44.3867
-1.53933 4.00172 44.3792
-1.59946 4.00044 44.3716
-1.65957 3.99915 44.3639
-1.71966 3.99786 44.356
-1.77972 3.99657 44.348
-1.83975 3.99528 44.34
-1.89976 3.99398 44.3318
-1.95974 3.99268 44.3234
-2.0197 3.99138 44.315
-2.07963 3.99008 44.3065
-2.13952 3.98878 44.2978
-2.1994 3.98747 44.289
-2.25924 3.98617 44.2801
-2.37883 3.98355 44.262
-3.67073 3.92447 43.9855
-3.84727 3.92042 43.9504
-3.9572 3.90282 43.9026
-4.01585 3.90147 43.8905
-4.12537 3.88386 43.8422
-4.18386 3.8825 43.8299
-4.3007 3.87977 43.8048
-4.35906 3.87841 43.7921
-4.47562 3.87568 43.7665
-4.53384 3.87432 43.7535
-4.592 3.87295 43.7404
-4.65012 3.87159 43.7272
-4.70819 3.87022 43.7139
8.43168 4.41244 47.7542
8.33836 4.40787 47.6132
6.67913 4.30555 46.7849
6.48192 4.30137 46.7393
6.42033 4.30053 46.7483
6.35868 4.29969 46.7572
6.27283 4.29549 46.6193
6.21127 4.29465 46.6278
6.14965 4.29379 46.6363
6.08799 4.29294 46.6446
6.02627 4.29208 46.6527
5.88146 4.27208 46.4932
5.81983 4.2712 46.5009
5.75816 4.27032 46.5084
4.26553 4.1917 45.9842
4.19526 4.18927 45.9183
4.12515 4.18685 45.8521
4.06354 4.18585 45.856
4.0019 4.18485 45.8597
3.94022 4.18385 45.8633
3.87852 4.18284 45.8667
3.68554 4.17839 45.8065
3.61621 4.17596 45.7398
3.55456 4.17494 45.7425
3.49288 4.17391 45.7451
3.43118 4.17288 45.7476
3.36945 4.17185 45.75
3.18412 4.16873 45.7562
1.73832 4.10596 45.3003
1.67658 4.08873 45.2055
1.49674 4.0705 45.1754
1.43118 4.06815 45.1068
1.36989 4.067 45.1051
1.3086 4.06584 45.1032
1.2473 4.06468 45.1011
1.186 4.06351 45.099
1.1247 4.06235 45.0967
1.0634 4.06117 45.0943
0.998593 4.05883 45.0253
0.811725 4.05414 44.9506
0.750603 4.05296 44.9475
-1.65998 3.93987 44.3679
-1.72006 3.93858 44.36
-1.78012 3.93728 44.352
-1.84016 3.93599 44.3439
-1.90017 3.93469 44.3357
-1.96015 3.93339 44.3273
-2.02011 3.93209 44.3189
-2.08003 3.93079 44.3103
-2.1998 3.92818 44.2928
-2.25964 3.92687 44.2839
-2.37924 3.92425 44.2657
-2.43595 3.92113 44.1302
-3.67109 3.86527 43.9886
-4.0086 3.82748 43.8696
-4.18419 3.82341 43.8327
-4.35938 3.81934 43.7949
-4.47594 3.81663 43.7692
-4.53415 3.81527 43.7562
-4.65043 3.81255 43.7299
-4.7085 3.81119 43.7166
-4.76652 3.80983 43.7032
-4.9981 3.80438 43.6486
-5.29723 3.79892 43.6996
-5.3549 3.79755 43.6851
-5.41251 3.79618 43.6706
-5.47007 3.79481 43.6559
-5.52758 3.79344 43.6411
-5.58504 3.79207 43.6263
-5.69978 3.78933 43.5963
8.43246 4.35075 47.7646
8.33912 4.34636 47.6235
8.27769 4.34563 47.6371
8.21619 4.3449 47.6505
6.99139 4.25624 47.1254
6.81535 4.2481 46.8481
6.75383 4.24725 46.8579
6.6795 4.24481 46.7938
6.54381 4.2415 46.7389
6.48226 4.24064 46.748
6.42065 4.23977 46.757
6.35899 4.2389 46.7659
6.27312 4.23489 46.6279
4.06348 4.12579 45.8631
4.00183 4.12477 45.8667
3.94015 4.12375 45.8703
3.87845 4.12272 45.8737
3.68544 4.11831 45.8134
3.6161 4.11595 45.7466
3.55444 4.11491 45.7493
3.49275 4.11387 45.7519
3.43104 4.11282 45.7543
3.36931 4.11177 45.7566
3.17708 4.1073 45.6936
1.43087 4.00853 45.1123
1.36958 4.00736 45.1105
1.30829 4.00619 45.1086
1.24699 4.00501 45.1066
1.18569 4.00384 45.1044
1.06307 4.00147 45.0996
0.998259 3.99922 45.0306
0.811375 3.99459 44.9558
0.75025 3.99339 44.9527
0.689126 3.9922 44.9496
0.628005 3.991 44.9462
0.566887 3.9898 44.9428
0.505772 3.9886 44.9393
0.442012 3.98635 44.8697
-1.00857 3.92604 44.6295
-1.06957 3.92384 44.5582
-1.12448 3.9069 44.4623
-1.17887 3.89087 44.4308
-1.2451 3.90435 44.4484
-1.30538 3.90307 44.4413
-1.3596 3.88702 44.4096
-1.4198 3.88574 44.4023
-1.47998 3.88445 44.3949
-1.54014 3.88316 44.3873
-1.60028 3.88187 44.3796
-1.66039 3.88057 44.3719
-1.72047 3.87928 44.364
-1.78053 3.87798 44.3559
-1.84057 3.87668 44.3478
-1.90058 3.87538 44.3396
-2.02051 3.87278 44.3227
-2.08044 3.87148 44.3141
-2.61846 3.85967 44.2315
-3.13476 3.81666 43.9672
-3.31458 3.81338 43.9972
-3.4916 3.80938 43.964
-3.66826 3.80536 43.9299
-3.84455 3.80134 43.8947
-5.29749 3.73977 43.7021
-5.35515 3.7384 43.6876
-5.41277 3.73704 43.673
-5.47033 3.73568 43.6583
-5.52783 3.73432 43.6435
-5.58528 3.73296 43.6286
-5.70002 3.73024 43.5986
8.43323 4.28903 47.7751
8.33987 4.28481 47.6339
8.27843 4.28405 47.6474
6.96513 4.19204 46.9854
6.81575 4.18729 46.8572
6.75422 4.18641 46.8669
6.67987 4.18404 46.8028
6.54415 4.18078 46.7477
6.48259 4.17989 46.7568
6.42097 4.17899 46.7658
6.34712 4.17662 46.7013
6.2734 4.17426 46.6366
6.21182 4.17335 46.6451
6.15019 4.17244 46.6534
6.0885 4.17153 46.6616
6.01516 4.16917 46.5967
4.3863 4.08816 46.0182
4.32457 4.08714 46.0225
4.26548 4.07129 45.9986
4.19519 4.06902 45.9326
4.12505 4.06675 45.8664
4.06343 4.06571 45.8702
4.00177 4.06467 45.8738
3.94008 4.06362 45.8773
3.87837 4.06257 45.8806
3.68533 4.0582 45.8202
3.61598 4.05593 45.7534
3.55432 4.05487 45.7561
3.49263 4.0538 45.7586
1.73774 3.98628 45.3118
1.67622 3.98512 45.3105
1.06275 3.94176 45.105
0.997922 3.93958 45.0359
0.933281 3.93741 44.9668
0.811022 3.93502 44.961
0.749894 3.93381 44.9579
0.688768 3.93261 44.9547
0.627644 3.9314 44.9514
0.566523 3.93019 44.9479
0.505405 3.92898 44.9443
0.441636 3.92681 44.8747
-1.05868 3.83415 44.4486
-1.11898 3.83287 44.4419
-1.17927 3.83159 44.435
-1.23954 3.8303 44.4281
-1.29978 3.82902 44.421
-1.36001 3.82773 44.4137
-1.42021 3.82644 44.4064
-1.48039 3.82515 44.3989
-1.54055 3.82385 44.3914
-1.60068 3.82256 44.3837
-1.6608 3.82126 44.3759
-1.72088 3.81997 44.3679
-1.84098 3.81737 44.3517
-1.90099 3.81607 44.3435
-2.02093 3.81346 44.3266
-2.43981 3.80429 44.2638
-2.61711 3.79963 44.1722
-2.79562 3.79568 44.1427
-3.31496 3.75424 44.0005
-3.49198 3.75024 43.9673
-3.66864 3.74624 43.933
-3.84492 3.74223 43.8978
-3.90008 3.74029 43.8241
-4.82509 3.6904 43.695
-4.88301 3.68905 43.6814
-4.99869 3.68635 43.6538
-5.11417 3.68366 43.6259
-5.29775 3.68061 43.7045
-5.41302 3.6779 43.6754
-5.47058 3.67655 43.6607
-5.52808 3.6752 43.6459
-5.58553 3.67385 43.631
-5.70026 3.67114 43.6009
-5.81477 3.66844 43.5705
8.43401 4.22727 47.7856
6.81615 4.12644 46.8662
6.75461 4.12553 46.8759
6.68024 4.12324 46.8118
6.60601 4.12094 46.7474
6.54449 4.12003 46.7566
6.48292 4.1191 46.7657
6.42129 4.11818 46.7746
6.34742 4.11589 46.71
6.27369 4.1136 46.6452
6.2121 4.11266 46.6537
6.15045 4.11173 46.662
6.08876 4.11079 46.6701
6.01689 4.09363 46.5752
5.94372 4.09139 46.5105
5.88212 4.09043 46.5182
5.82046 4.08947 46.5258
5.76044 4.07366 46.5037
4.38888 4.01315 45.9974
4.32718 4.0121 46.0017
4.26546 4.01104 46.0058
4.19515 4.00885 45.9398
4.125 4.00666 45.8735
4.06337 4.0056 45.8773
4.0017 4.00454 45.8809
3.94001 4.00347 45.8843
3.87829 4.0024 45.8876
3.67751 3.99696 45.7575
3.61586 3.99588 45.7602
3.55419 3.9948 45.7629
3.4925 3.99371 45.7654
3.43077 3.99263 45.7678
3.36903 3.99154 45.77
3.18365 3.98825 45.7759
1.73745 3.9264 45.3175
1.6757 3.90954 45.2225
1.60982 3.90746 45.1542
1.48717 3.90509 45.1511
1.42584 3.90391 45.1493
1.36896 3.88802 45.1215
1.30766 3.88682 45.1196
1.24635 3.88563 45.1174
1.18504 3.88443 45.1152
0.997583 3.87993 45.0412
0.932932 3.87785 44.9721
0.810667 3.87543 44.9663
0.749536 3.87421 44.9631
0.688407 3.873 44.9599
0.62728 3.87178 44.9565
-0.707246 3.81258 44.6054
-0.889621 3.80802 44.5221
-0.950051 3.80675 44.5156
-2.44022 3.74495 44.2675
-2.49994 3.74363 44.258
-2.61753 3.74038 44.1758
-2.66167 3.70911 44.0552
-2.78912 3.7217 44.122
-2.84651 3.71983 44.0494
-2.96504 3.71719 44.0291
-3.13799 3.69907 44.0362
-3.19462 3.6972 43.9633
-3.31266 3.69455 43.9417
-3.48942 3.69056 43.9085
-3.54827 3.68924 43.8972
-3.66583 3.68658 43.8743
-3.8453 3.6831 43.9009
-4.99899 3.62733 43.6564
-5.11446 3.62465 43.6284
-5.29801 3.62144 43.707
-5.41328 3.61875 43.6778
-5.47083 3.61741 43.6631
-5.58578 3.61472 43.6334
-5.64317 3.61338 43.6184
-5.7005 3.61203 43.6033
-5.81501 3.60935 43.5728
21.811 9.90265 113.891
8.43479 4.16548 47.7961
8.34137 4.16163 47.6548
8.2799 4.1608 47.6681
6.966 4.07003 47.0038
6.81655 4.06557 46.8753
6.75499 4.06463 46.885
6.68061 4.06241 46.8208
6.60636 4.06019 46.7563
6.54483 4.05925 46.7655
6.48325 4.05829 46.7745
6.42161 4.05734 46.7834
5.76064 4.01304 46.5119
4.12495 3.94655 45.8807
4.06331 3.94547 45.8844
4.00164 3.94439 45.8879
3.93994 3.9433 45.8914
3.8702 3.94119 45.825
3.67739 3.9369 45.7644
3.61574 3.93581 45.7671
3.55407 3.93471 45.7697
3.49236 3.9336 45.7722
3.43064 3.9325 45.7745
3.36169 3.93039 45.7075
3.16967 3.92607 45.6441
1.61382 3.83313 45.1339
1.49124 3.83073 45.1307
1.42995 3.82953 45.129
1.36864 3.82832 45.1271
1.30734 3.82712 45.125
1.24603 3.82591 45.1229
1.18472 3.82469 45.1206
0.997241 3.82026 45.0466
0.93258 3.81826 44.9774
0.871445 3.81704 44.9745
0.81031 3.81582 44.9715
0.749176 3.8146 44.9684
0.688044 3.81337 44.9651
0.626914 3.81214 44.9617
0.318837 3.80522 44.877
0.133606 3.80075 44.7985
0.0727072 3.79951 44.794
-0.0490654 3.79702 44.7846
-0.109938 3.79577 44.7798
-0.1708 3.79452 44.7748
-0.231651 3.79327 44.7697
-0.292491 3.79202 44.7644
-0.525854 3.75695 44.6276
-0.707658 3.75314 44.6099
-0.76913 3.75121 44.5391
-0.890044 3.74866 44.5265
-0.950475 3.74738 44.52
-2.44063 3.68559 44.2712
-2.50035 3.68428 44.2617
-3.13595 3.63944 43.9773
-3.19502 3.63812 43.9667
-3.31305 3.63547 43.945
-3.37201 3.63415 43.934
-3.48981 3.6315 43.9117
-3.54866 3.63017 43.9004
-3.66622 3.62752 43.8775
-3.72494 3.62619 43.8658
-3.84567 3.62396 43.904
-3.90084 3.62221 43.8303
-5.41353 3.55959 43.6802
-5.47108 3.55825 43.6655
-5.58602 3.55559 43.6357
-5.64341 3.55425 43.6207
-5.70074 3.55292 43.6056
8.43557 4.10366 47.8066
8.34212 4.09999 47.6652
8.28042 4.08412 47.6456
6.96643 4.00898 47.013
6.87845 4.00564 46.8747
6.81694 4.00467 46.8845
6.75538 4.0037 46.8941
6.68097 4.00156 46.8298
6.60671 3.99941 46.7653
6.54517 3.99844 46.7744
6.48357 3.99746 46.7834
6.42193 3.99647 46.7922
6.34802 3.99433 46.7275
6.27426 3.99219 46.6627
6.21264 3.9912 46.671
6.15098 3.99021 46.6792
6.08926 3.98922 46.6873
6.0275 3.98822 46.6952
4.38624 3.90736 46.0402
4.32714 3.89158 46.0163
4.2654 3.89048 46.0203
4.19506 3.88845 45.9542
4.12489 3.88642 45.8879
4.06324 3.88531 45.8915
4.00156 3.88421 45.8951
3.93986 3.8831 45.8984
3.8701 3.88108 45.832
3.67728 3.87683 45.7713
3.61562 3.87571 45.774
3.55394 3.87459 45.7765
3.49223 3.87347 45.779
3.43049 3.87234 45.7813
1.6748 3.77467 45.1409
1.49093 3.77104 45.1363
1.42963 3.76982 45.1345
1.36833 3.76861 45.1326
1.2457 3.76616 45.1284
1.18439 3.76494 45.1261
0.382055 3.74752 44.9519
0.318449 3.74561 44.882
0.255031 3.74371 44.8121
0.133205 3.74121 44.8034
0.0775258 3.72537 44.7737
0.0166683 3.72411 44.7691
-0.0441801 3.72285 44.7643
-0.105019 3.72159 44.7595
-0.165848 3.72033 44.7545
-0.221267 3.70444 44.7243
-0.282038 3.70317 44.7191
-0.342798 3.7019 44.7137
-0.46428 3.69935 44.7027
-0.526264 3.69751 44.6322
-0.708072 3.69368 44.6144
-0.769553 3.69184 44.5436
-0.890469 3.68928 44.5309
-0.950901 3.68799 44.5244
-2.44104 3.62622 44.2749
-2.4992 3.62447 44.2024
-2.61663 3.62141 44.1202
-2.67608 3.6201 44.1104
-2.79488 3.61748 44.0906
-3.54905 3.57109 43.9036
-3.6666 3.56845 43.8807
-3.72532 3.56713 43.869
-3.84263 3.56448 43.8454
-3.90122 3.56316 43.8334
-4.19352 3.55655 43.7721
-4.826 3.51322 43.7031
-4.99958 3.50925 43.6617
-5.29853 3.50307 43.7119
-5.41379 3.50042 43.6827
-5.47133 3.49909 43.6679
-5.58627 3.49644 43.6381
-5.64365 3.49512 43.623
-5.70098 3.4938 43.6079
-5.75825 3.49247 43.5927
-5.81547 3.49115 43.5773
8.43635 4.0418 47.8171
6.87885 3.94474 46.8839
6.81733 3.94374 46.8936
6.75576 3.94274 46.9032
6.68134 3.94067 46.8388
6.60705 3.9386 46.7743
6.5455 3.9376 46.7834
6.4839 3.93659 46.7923
6.42224 3.93558 46.8011
6.34832 3.93351 46.7363
6.27454 3.93145 46.6714
6.21291 3.93043 46.6797
6.15124 3.92941 46.6879
6.08951 3.92839 46.6959
6.01761 3.91159 46.6007
5.94439 3.90958 46.5359
5.88276 3.90854 46.5435
5.82107 3.9075 46.5509
5.74987 3.89077 46.4565
4.38883 3.8324 46.0194
4.32711 3.83128 46.0236
4.26536 3.83017 46.0276
4.19502 3.82821 45.9614
4.12483 3.82626 45.8951
4.06317 3.82514 45.8987
4.00149 3.82401 45.9022
3.93978 3.82288 45.9055
3.87001 3.82094 45.8391
3.67716 3.81673 45.7782
3.61549 3.81559 45.7809
3.5538 3.81445 45.7834
3.49209 3.81331 45.7858
3.43035 3.81217 45.7881
3.35418 3.80943 45.6518
3.29258 3.80828 45.6538
3.10765 3.80484 45.6589
3.04596 3.80368 45.6604
2.86078 3.8002 45.664
2.66322 3.79517 45.5289
2.6016 3.794 45.5295
2.53995 3.79283 45.5299
2.41662 3.79048 45.5303
2.35493 3.78931 45.5304
2.29001 3.75746 45.3413
2.16709 3.75507 45.3408
2.10562 3.75388 45.3403
2.04413 3.75268 45.3398
1.98263 3.75148 45.339
1.92113 3.75028 45.3382
1.85961 3.74907 45.3372
1.78862 3.74652 45.2013
-0.282437 3.64365 44.7238
-0.344736 3.64189 44.6536
-0.464683 3.63981 44.7073
-0.526676 3.63805 44.6368
-0.708488 3.6342 44.6189
-0.769977 3.63245 44.5481
-0.890895 3.62988 44.5354
-0.951328 3.62859 44.5288
-2.44146 3.56684 44.2786
-2.49806 3.56484 44.1431
-2.61706 3.56222 44.1239
-2.67651 3.56091 44.1141
-2.79531 3.55828 44.0942
-2.85465 3.55697 44.0841
-2.97324 3.55434 44.0635
-3.02549 3.53845 44.0291
-3.1438 3.53582 44.008
-3.2029 3.53451 43.9972
-3.31385 3.51728 43.9517
-3.3728 3.51596 43.9406
-3.4906 3.51333 43.9182
-3.54944 3.51201 43.9069
-3.66699 3.50937 43.8839
-3.72571 3.50805 43.8722
-3.84301 3.50541 43.8485
-3.9016 3.50409 43.8365
-5.41404 3.44124 43.6851
-5.47159 3.43993 43.6703
-5.58651 3.43729 43.6405
-5.64389 3.43598 43.6254
-5.70122 3.43466 43.6102
-5.75849 3.43335 43.595
6.96728 3.88679 47.0316
6.87925 3.88381 46.8932
6.81772 3.88279 46.9028
6.75614 3.88176 46.9123
6.6817 3.87976 46.8479
6.6074 3.87777 46.7833
6.54584 3.87673 46.7924
6.48422 3.87569 46.8012
5.88457 3.83319 46.5223
5.82292 3.83212 46.5297
5.76122 3.83104 46.5369
4.3888 3.7721 46.0268
4.26532 3.76982 46.0349
4.1864 3.76721 45.8986
4.12758 3.75154 45.8742
4.0631 3.76493 45.9059
4.00431 3.74924 45.8812
3.94263 3.74808 45.8845
3.87458 3.7513 45.8506
3.68321 3.72753 45.7298
3.62162 3.72635 45.7324
3.56001 3.72518 45.7349
3.11089 3.73019 45.6384
3.04924 3.72901 45.6398
2.98757 3.72783 45.6411
2.92588 3.72664 45.6423
2.85777 3.72478 45.5746
2.79341 3.70844 45.4804
2.66667 3.7206 45.5086
2.60508 3.71941 45.5091
2.54723 3.70365 45.4829
2.48565 3.70245 45.4831
2.42404 3.70124 45.4833
2.35681 3.69944 45.4154
2.28974 3.69763 45.3474
2.16682 3.69522 45.3468
2.10534 3.69401 45.3463
2.04385 3.69279 45.3457
1.98234 3.69158 45.345
1.92083 3.69036 45.3441
0.38129 3.62808 44.962
0.317667 3.62634 44.8921
0.254231 3.62462 44.8221
0.193309 3.62335 44.8178
0.132396 3.62209 44.8134
-0.52709 3.57857 44.6414
-0.709918 3.57433 44.5588
-0.770403 3.57305 44.5526
-0.830872 3.57176 44.5463
-0.891324 3.57047 44.5398
-0.951758 3.56917 44.5333
-2.44187 3.50745 44.2823
-2.49849 3.50563 44.1468
-2.61749 3.50301 44.1275
-2.67694 3.5017 44.1177
-3.3732 3.45685 43.944
-3.43211 3.45554 43.9328
-3.49099 3.45422 43.9215
-3.54983 3.45291 43.9101
-3.60862 3.45159 43.8987
-3.66738 3.45028 43.8871
-3.72609 3.44896 43.8754
-3.8434 3.44633 43.8517
-3.90198 3.44502 43.8397
-4.19427 3.43845 43.7781
8.3441 3.90003 47.6637
8.28242 3.88417 47.6438
6.95442 3.82478 46.9668
6.87965 3.82285 46.9024
6.81811 3.8218 46.912
6.75651 3.82074 46.9214
6.68206 3.81882 46.857
6.60774 3.8169 46.7924
6.54617 3.81583 46.8014
6.48454 3.81477 46.8102
6.42286 3.8137 46.8188
6.34891 3.81179 46.754
6.27509 3.80987 46.689
6.00795 3.77472 46.5157
5.94639 3.77362 46.5233
5.88478 3.77252 46.5308
5.82312 3.77142 46.5381
5.76142 3.77031 46.5453
4.89618 3.75138 46.1951
4.83446 3.75025 46.2002
4.7727 3.74912 46.2053
4.7109 3.74799 46.2102
4.5096 3.72863 46.0539
4.45048 3.71293 46.03
2.8547 3.64972 45.486
2.79319 3.64852 45.4869
2.67013 3.64609 45.4882
2.60857 3.64488 45.4887
2.54699 3.64366 45.4891
2.4238 3.64123 45.4895
2.35655 3.6395 45.4216
2.28947 3.63778 45.3536
2.16654 3.63534 45.3529
2.10505 3.63411 45.3524
2.04356 3.63289 45.3517
1.98205 3.63166 45.3509
1.92054 3.63043 45.35
1.85417 3.62871 45.2816
1.78799 3.627 45.2131
0.380905 3.56833 44.9671
0.317272 3.56668 44.8972
0.253827 3.56504 44.8272
0.192904 3.56377 44.8228
0.131988 3.5625 44.8183
0.0710798 3.56123 44.8137
0.0101805 3.55995 44.809
-0.0453889 3.54419 44.7789
-0.106234 3.5429 44.774
-0.167068 3.54162 44.7689
-0.283241 3.52454 44.7332
-0.345557 3.52295 44.663
-0.527506 3.51908 44.646
-0.589324 3.5175 44.5755
-0.710344 3.51492 44.5634
-0.770831 3.51363 44.5571
-0.831301 3.51233 44.5508
-0.891754 3.51104 44.5443
-0.952189 3.50974 44.5377
-2.44229 3.44804 44.286
-2.49892 3.44641 44.1506
-2.61792 3.44379 44.1312
-2.67737 3.44248 44.1214
-2.79616 3.43986 44.1014
-2.85551 3.43855 44.0912
-2.91482 3.43724 44.0809
-2.9741 3.43593 44.0706
-3.03334 3.43462 44.0601
-3.84378 3.38724 43.8548
-3.90237 3.38593 43.8428
-5.46654 3.32161 43.6148
-5.587 3.31897 43.6452
-5.64437 3.31767 43.6301
-5.70169 3.31638 43.6149
-5.75895 3.31508 43.5996
-5.8334 3.34306 43.6308
6.94155 3.76295 46.902
6.88005 3.76187 46.9117
6.81945 3.74618 46.8901
6.75789 3.74508 46.8995
6.68346 3.74322 46.835
6.60918 3.74143 46.7708
6.54765 3.74032 46.7797
6.48605 3.73922 46.7885
6.42317 3.75272 46.8278
6.35048 3.73626 46.7322
6.2767 3.73448 46.6677
6.21648 3.71878 46.6457
6.01983 3.71474 46.5968
5.7616 3.70956 46.5536
5.67593 3.72168 46.4457
5.61427 3.72055 46.4525
5.55256 3.71943 46.4592
5.49081 3.7183 46.4657
5.42902 3.71717 46.4721
5.35667 3.71535 46.4062
5.28447 3.71358 46.3406
5.22479 3.69789 46.3178
5.16306 3.69675 46.3236
5.10129 3.6956 46.3293
5.02953 3.69383 46.2635
4.95791 3.69207 46.1976
4.89622 3.69092 46.2029
4.83449 3.68977 46.208
2.54675 3.58366 45.4954
2.42355 3.58119 45.4957
2.35629 3.57955 45.4277
2.2892 3.57791 45.3597
2.22773 3.57667 45.3594
2.16626 3.57544 45.359
2.10477 3.5742 45.3584
2.04327 3.57296 45.3577
1.98176 3.57172 45.3569
1.92024 3.57047 45.3559
1.85387 3.56884 45.2875
1.78767 3.56721 45.2189
0.380517 3.50856 44.9722
-0.529216 3.45938 44.586
-0.58975 3.45808 44.5801
-0.710773 3.45549 44.5679
-0.771261 3.45419 44.5617
-0.831732 3.45289 44.5553
-0.892186 3.45159 44.5488
-0.952622 3.45029 44.5421
-2.43981 3.38848 44.1638
-2.49936 3.38717 44.1543
-2.55887 3.38586 44.1447
-2.61835 3.38455 44.1349
-2.6778 3.38324 44.1251
-2.73721 3.38193 44.1151
-2.79659 3.38062 44.105
-2.85594 3.37932 44.0948
-2.91525 3.37801 44.0845
-2.97452 3.3767 44.0741
-3.03376 3.37539 44.0636
-3.09296 3.37409 44.053
-3.15213 3.37278 44.0422
-3.21126 3.37147 44.0314
-3.27035 3.37017 44.0204
-3.32222 3.35439 43.9855
-3.3812 3.35308 43.9744
-3.44014 3.35177 43.9632
-3.49905 3.35046 43.9518
-3.55061 3.33467 43.9167
-3.60941 3.33337 43.9051
-3.66816 3.33206 43.8935
-3.72687 3.33075 43.8817
-3.78554 3.32944 43.8699
-3.84416 3.32814 43.858
-3.90275 3.32683 43.8459
-4.07824 3.32292 43.8091
-4.19501 3.32032 43.7841
8.43944 3.79406 47.8596
7.3644 3.74058 47.2105
7.27617 3.70885 47.009
7.21476 3.70774 47.0194
7.15261 3.72124 47.0608
7.09104 3.72014 47.0709
7.0302 3.7044 47.0497
5.68893 3.64708 46.4969
5.61622 3.64537 46.4316
5.55455 3.64421 46.4382
5.49283 3.64305 46.4447
5.43107 3.64189 46.4511
5.35875 3.64019 46.3856
5.28657 3.63849 46.3199
5.22488 3.63733 46.3258
5.16314 3.63616 46.3316
5.10136 3.63499 46.3373
5.02958 3.6333 46.2715
4.95796 3.63161 46.2055
4.89625 3.63044 46.2107
4.83451 3.62927 46.2158
4.77273 3.62809 46.2207
4.71092 3.62691 46.2255
3.11033 3.5499 45.6583
3.04866 3.54867 45.6596
2.85713 3.54459 45.594
2.79275 3.52861 45.4997
2.73122 3.52737 45.5004
2.66966 3.52612 45.501
2.60809 3.52488 45.5014
2.54651 3.52363 45.5017
2.42329 3.52113 45.5019
2.35602 3.51957 45.4339
2.28892 3.51802 45.3659
2.22745 3.51677 45.3655
2.16597 3.51552 45.3651
2.10448 3.51426 45.3645
2.04298 3.51301 45.3637
1.91994 3.5105 45.3619
1.85841 3.50924 45.3608
0.380127 3.44878 44.9773
0.313948 3.44713 44.8416
0.253013 3.44584 44.8373
0.192085 3.44456 44.8329
0.131165 3.44327 44.8283
0.070253 3.44198 44.8237
0.00934974 3.44069 44.8189
-0.0515441 3.4394 44.814
-0.771693 3.39474 44.5662
-0.832165 3.39343 44.5598
-0.89262 3.39213 44.5533
-0.953057 3.39083 44.5466
-2.44169 3.32921 44.2306
-2.49979 3.32792 44.1581
-2.5593 3.32661 44.1484
-2.61879 3.3253 44.1386
-2.67823 3.32399 44.1287
-2.73765 3.32269 44.1187
-2.79702 3.32138 44.1086
-2.85637 3.32007 44.0984
-2.91568 3.31877 44.0881
-2.97495 3.31746 44.0777
-3.66855 3.27293 43.8967
-3.72726 3.27163 43.8849
-3.78592 3.27033 43.8731
-3.84455 3.26902 43.8611
-3.90313 3.26772 43.849
-3.96167 3.26643 43.8369
-4.07862 3.26383 43.8122
-4.19538 3.26124 43.7871
-5.77666 3.2259 43.651
8.42382 3.71654 47.7592
8.34609 3.70005 47.6623
8.25336 3.71225 47.5549
8.19196 3.71116 47.5676
8.13041 3.69538 47.5476
7.97688 3.70648 47.4521
7.91539 3.70539 47.4642
7.85398 3.68961 47.4439
7.7628 3.6872 47.3042
7.70135 3.68608 47.3157
7.63983 3.68497 47.3271
7.57825 3.68386 47.3383
7.488 3.68146 47.1987
7.42745 3.65119 47.1462
7.36597 3.65006 47.157
7.27665 3.64777 47.0186
7.21523 3.64663 47.029
7.15376 3.64549 47.0392
7.09222 3.64435 47.0492
7.00383 3.64209 46.911
5.67801 3.5859 46.4332
5.61637 3.58472 46.4399
5.55469 3.58354 46.4465
5.49297 3.58235 46.4529
5.4312 3.58116 46.4593
5.35886 3.57954 46.3937
5.28667 3.57792 46.328
5.22496 3.57673 46.3339
5.16322 3.57554 46.3396
5.10143 3.57435 46.3452
5.02964 3.57273 46.2794
4.958 3.57112 46.2134
4.89629 3.56993 46.2186
4.83454 3.56874 46.2236
4.77275 3.56754 46.2285
4.70395 3.55149 46.1336
4.57124 3.54873 46.0722
4.50954 3.54752 46.0766
2.79252 3.46862 45.5062
2.73098 3.46737 45.5068
2.66943 3.46611 45.5073
2.60785 3.46485 45.5077
2.54626 3.46358 45.508
2.35576 3.45958 45.4401
2.28865 3.45811 45.372
2.22717 3.45684 45.3717
2.16569 3.45558 45.3712
2.10419 3.45431 45.3705
2.04268 3.45304 45.3698
1.91964 3.4505 45.3678
1.85324 3.44904 45.2993
1.78702 3.44758 45.2307
0.379735 3.38898 44.9824
0.31354 3.38751 44.8467
0.252603 3.38622 44.8424
0.191673 3.38492 44.8379
0.130751 3.38363 44.8334
0.0698364 3.38233 44.8287
0.00893117 3.38103 44.8238
-0.0519646 3.37973 44.8189
-0.107467 3.36406 44.7885
-0.168307 3.36276 44.7834
-0.352273 3.35878 44.702
-0.408954 3.34312 44.6068
-0.530071 3.3405 44.5953
-0.590608 3.3392 44.5893
-0.65113 3.33789 44.5832
-0.711636 3.33658 44.5771
-0.772126 3.33527 44.5707
-0.8326 3.33396 44.5643
-0.893055 3.33265 44.5577
-0.953494 3.33134 44.5511
-2.44211 3.26985 44.2343
-2.50023 3.26866 44.1618
-2.55974 3.26735 44.1521
-2.61922 3.26604 44.1423
-2.67867 3.26473 44.1324
-2.73808 3.26343 44.1224
-2.79746 3.26212 44.1123
-2.8568 3.26082 44.102
-2.91611 3.25951 44.0917
-2.97538 3.25821 44.0812
-3.03462 3.25691 44.0706
-3.09382 3.2556 44.06
-3.15298 3.2543 44.0492
-3.21211 3.253 44.0383
-3.27119 3.2517 44.0273
-3.33024 3.2504 44.0162
-5.19098 3.17987 43.6817
-5.47863 3.17353 43.6083
-5.66226 3.16918 43.6842
-5.71962 3.16792 43.6688
-5.77692 3.16666 43.6534
-5.82809 3.16568 43.5775
8.40826 3.63941 47.6598
8.34684 3.63827 47.6728
8.19254 3.63485 47.5454
8.1311 3.63371 47.558
8.06959 3.63257 47.5703
7.97758 3.63032 47.4303
7.91613 3.62917 47.4423
7.76339 3.6258 47.3143
7.70193 3.62465 47.3258
7.2157 3.5855 47.0386
7.15421 3.58432 47.0487
7.09266 3.58315 47.0587
7.00425 3.58107 46.9204
5.68927 3.52559 46.5137
5.61652 3.52404 46.4483
5.55483 3.52283 46.4548
5.4931 3.52162 46.4612
5.43132 3.52041 46.4675
5.35897 3.51887 46.4019
5.28676 3.51732 46.3362
5.22505 3.51611 46.342
5.16329 3.5149 46.3477
5.1015 3.51368 46.3532
2.34983 3.39945 45.3785
2.28837 3.39817 45.3782
2.22689 3.39689 45.3778
2.1654 3.39561 45.3773
2.1039 3.39433 45.3766
2.04238 3.39305 45.3758
1.85293 3.3891 45.3053
1.7867 3.38773 45.2367
0.929678 3.3409 45.0204
-0.530502 3.28104 44.5999
-0.59104 3.27973 44.594
-0.651563 3.27841 44.5879
-0.71207 3.2771 44.5816
-0.772562 3.27579 44.5753
-0.833036 3.27447 44.5688
-0.893493 3.27316 44.5622
-2.56017 3.20807 44.1558
-2.61965 3.20677 44.146
-2.6791 3.20546 44.1361
-2.73851 3.20416 44.1261
-2.79789 3.20285 44.1159
-2.85723 3.20155 44.1056
-2.91654 3.20025 44.0953
-2.97581 3.19894 44.0848
-3.03505 3.19764 44.0742
-3.09424 3.19634 44.0635
-3.15341 3.19504 44.0527
-3.21253 3.19374 44.0418
-3.27162 3.19245 44.0307
-3.33066 3.19115 44.0196
-3.38967 3.18985 44.0084
-3.44864 3.18856 43.997
-3.50757 3.18727 43.9856
-3.55912 3.17161 43.9502
-3.61794 3.17031 43.9386
-3.67672 3.16902 43.9269
-3.72803 3.15335 43.8914
-3.7867 3.15206 43.8794
-3.84532 3.15076 43.8674
-3.96243 3.14818 43.8431
-4.02092 3.1469 43.8308
-4.4291 3.13791 43.7416
8.19324 3.57319 47.5559
8.13179 3.57202 47.5684
7.97823 3.56877 47.4406
7.91676 3.56759 47.4525
7.76398 3.56436 47.3244
7.70278 3.54869 47.3037
7.64129 3.5475 47.3149
7.48949 3.54433 47.1868
7.42849 3.52865 47.1658
7.36698 3.52745 47.1764
7.27761 3.52553 47.0379
7.21617 3.52433 47.0482
7.15467 3.52313 47.0583
7.09311 3.52192 47.0683
7.00466 3.52002 46.9299
5.68943 3.46481 46.5221
5.61667 3.46334 46.4567
5.55497 3.4621 46.4631
5.49323 3.46087 46.4695
5.43144 3.45963 46.4757
5.34853 3.45794 46.3384
5.28685 3.4567 46.3443
5.22513 3.45546 46.3501
5.16337 3.45423 46.3558
5.10156 3.45299 46.3613
5.02974 3.45153 46.2953
4.95807 3.45008 46.2293
4.89634 3.44884 46.2343
4.83457 3.4476 46.2393
4.77277 3.44636 46.2441
3.10974 3.36941 45.6783
3.05157 3.35381 45.6521
2.84999 3.36416 45.5453
2.79206 3.34859 45.5191
2.73051 3.3473 45.5197
2.66895 3.346 45.5201
2.60736 3.34471 45.5204
2.53982 3.3434 45.4528
2.34955 3.33951 45.3848
2.28808 3.33822 45.3844
2.2266 3.33692 45.384
2.16511 3.33563 45.3834
2.1036 3.33433 45.3827
2.04208 3.33304 45.3819
1.85748 3.32915 45.3786
0.378943 3.26932 44.9927
0.312717 3.26822 44.857
0.251776 3.26691 44.8526
0.190842 3.2656 44.8481
0.129915 3.26429 44.8434
0.0689969 3.26298 44.8387
0.00808778 3.26167 44.8338
-0.113701 3.25904 44.8236
-2.44297 3.1511 44.2419
-2.5011 3.15009 44.1693
-2.56061 3.14878 44.1596
-2.62009 3.14748 44.1497
-2.67953 3.14617 44.1398
-2.73894 3.14487 44.1297
-2.79832 3.14357 44.1195
-2.85766 3.14227 44.1092
-2.91697 3.14097 44.0989
-2.97624 3.13967 44.0883
-3.03548 3.13837 44.0777
-3.09467 3.13707 44.067
-3.15383 3.13577 44.0562
-3.21296 3.13448 44.0452
-3.27204 3.13318 44.0342
-4.54566 3.07628 43.7182
-5.07619 3.06405 43.7157
-5.1916 3.06154 43.6869
-5.36433 3.05778 43.6431
-5.47922 3.05529 43.6134
-5.66278 3.05064 43.689
-5.77743 3.04815 43.6582
-5.83467 3.04691 43.6426
8.44187 3.51655 47.835
8.34833 3.51462 47.6941
8.19395 3.5115 47.5664
8.13248 3.51029 47.5788
7.97887 3.50719 47.4509
7.49046 3.46857 47.1649
7.429 3.46733 47.1756
7.36748 3.4661 47.1862
7.27808 3.46436 47.0476
7.21663 3.46313 47.0579
7.15512 3.4619 47.0679
7.09354 3.46066 47.0778
7.00508 3.45894 46.9394
5.67848 3.40386 46.4585
5.61682 3.4026 46.4651
5.55511 3.40135 46.4715
5.43156 3.39882 46.484
5.34863 3.39731 46.3466
5.28694 3.39605 46.3525
5.22521 3.39479 46.3582
5.16344 3.39353 46.3638
5.10162 3.39227 46.3693
5.02979 3.39089 46.3033
4.9581 3.38951 46.2372
4.89636 3.38825 46.2422
4.83459 3.38699 46.2472
4.77519 3.37142 46.223
4.70395 3.37004 46.1568
4.63286 3.36872 46.0908
4.57117 3.36745 46.0952
4.50946 3.36618 46.0994
2.85337 3.28984 45.5249
2.79183 3.28853 45.5256
2.73027 3.28723 45.5261
2.6687 3.28592 45.5266
2.60711 3.28461 45.5268
2.53956 3.28338 45.4591
2.34927 3.27954 45.391
2.2878 3.27824 45.3907
2.22631 3.27693 45.3902
2.16481 3.27562 45.3896
2.1033 3.27432 45.3888
2.03663 3.2731 45.3206
1.84741 3.26928 45.2499
1.78604 3.26797 45.2485
0.375899 3.20967 44.9321
0.312303 3.20855 44.8621
0.251359 3.20723 44.8577
0.190423 3.20591 44.8531
0.129494 3.20459 44.8485
0.068574 3.20327 44.8437
0.007663 3.20196 44.8388
-0.11413 3.19932 44.8286
-0.176816 3.19822 44.7581
-0.355159 3.18026 44.6516
-0.415776 3.17895 44.6459
-0.470813 3.16339 44.6152
-0.53697 3.17631 44.6342
-0.591909 3.16074 44.6033
-0.652435 3.15942 44.5971
-0.712944 3.15809 44.5908
-0.773437 3.15677 44.5844
-0.833914 3.15545 44.5779
-0.894373 3.15413 44.5713
-2.442 3.09209 44.1827
-2.50154 3.09079 44.1731
-2.56105 3.08948 44.1633
-2.62053 3.08818 44.1535
-2.67997 3.08687 44.1435
-2.73938 3.08557 44.1334
-2.79876 3.08427 44.1232
-2.8581 3.08297 44.1129
-2.9174 3.08167 44.1025
-2.97667 3.08038 44.0919
-3.0359 3.07908 44.0813
-3.0951 3.07778 44.0705
-3.15426 3.07649 44.0597
-3.21338 3.0752 44.0487
-3.27247 3.07391 44.0376
-3.33151 3.07262 44.0265
-3.39052 3.07133 44.0152
-3.44948 3.07004 44.0038
-3.50841 3.06875 43.9923
-3.56729 3.06747 43.9807
-3.62614 3.06619 43.969
-3.68494 3.0649 43.9572
-4.89344 3.00965 43.6393
-5.0765 3.00485 43.7184
-5.19191 3.00236 43.6896
-5.30711 2.99987 43.6604
-5.36463 2.99863 43.6456
-5.47951 2.99615 43.6159
-5.66305 2.99136 43.6914
-5.77769 2.98889 43.6605
-5.83492 2.98766 43.6449
8.34907 3.45275 47.7047
8.25606 3.45101 47.5645
8.19465 3.44977 47.577
8.13316 3.44853 47.5893
7.97952 3.44558 47.4612
7.91802 3.44434 47.4731
7.33996 3.40442 47.0471
7.27856 3.40316 47.0574
7.21709 3.4019 47.0675
7.15557 3.40064 47.0775
7.08046 3.39923 47.0133
7.00549 3.39783 46.9489
5.68975 3.34316 46.539
5.61696 3.34184 46.4735
5.55524 3.34056 46.4799
5.43167 3.33799 46.4923
5.34872 3.33666 46.3549
5.28702 3.33537 46.3607
5.22528 3.33409 46.3664
4.57368 3.29273 46.0744
4.512 3.29143 46.0786
2.53335 3.22352 45.3977
2.34899 3.21956 45.3973
2.28751 3.21824 45.3969
2.22602 3.21692 45.3964
2.16452 3.2156 45.3957
2.103 3.21428 45.3949
2.03632 3.21314 45.3267
1.84708 3.20938 45.2559
1.7857 3.20806 45.2545
0.375491 3.14989 44.9373
0.311886 3.14886 44.8672
0.25094 3.14753 44.8628
0.190002 3.14621 44.8582
0.129071 3.14488 44.8535
-0.713384 3.09857 44.5954
-0.773878 3.09724 44.589
-0.834355 3.09591 44.5824
-0.894815 3.09459 44.5758
-2.85853 3.02367 44.1165
-2.91783 3.02237 44.1061
-2.9771 3.02107 44.0955
-3.03634 3.01978 44.0848
-3.09553 3.01849 44.0741
-3.15469 3.0172 44.0632
-3.21381 3.01591 44.0522
-3.27289 3.01462 44.0411
-3.33193 3.01333 44.0299
-3.39094 3.01205 44.0186
-3.4499 3.01076 44.0072
-3.50883 3.00948 43.9957
-3.56771 3.0082 43.984
-3.62655 3.00692 43.9723
-3.68535 3.00564 43.9605
-3.74411 3.00437 43.9485
-3.80283 3.00309 43.9365
-3.8615 3.00182 43.9243
-4.43019 2.96061 43.7505
-4.54638 2.9581 43.724
-4.7203 2.95434 43.6835
-4.89378 2.9506 43.6421
-5.07682 2.94565 43.721
-5.19222 2.94317 43.6922
-5.30742 2.9407 43.663
-5.36493 2.93947 43.6482
-5.47981 2.93701 43.6184
-5.66331 2.93206 43.6938
-5.77794 2.92962 43.6629
-5.82914 2.92904 43.5871
8.34982 3.39084 47.7154
8.25677 3.38928 47.5751
8.19535 3.38801 47.5875
8.13385 3.38673 47.5998
7.98016 3.38393 47.4716
7.91865 3.38266 47.4834
7.8423 3.36688 47.3865
7.76598 3.36553 47.3227
7.70451 3.36425 47.3339
7.49151 3.3459 47.1848
7.43003 3.3446 47.1953
7.36848 3.34331 47.2058
7.27903 3.34193 47.0671
7.21755 3.34064 47.0772
7.15602 3.33935 47.0872
7.08089 3.33802 47.0229
7.0059 3.33669 46.9585
5.68991 3.2823 46.5475
5.6171 3.28106 46.4819
5.55537 3.27975 46.4883
5.34881 3.27597 46.3631
5.28711 3.27467 46.3689
5.22536 3.27336 46.3746
5.02987 3.26952 46.3194
4.95816 3.26831 46.2532
3.10913 3.18872 45.6984
3.0407 3.18759 45.6308
2.9724 3.18652 45.5635
2.91443 3.17103 45.5373
2.8529 3.1697 45.5381
2.79135 3.16836 45.5387
2.72979 3.16702 45.5391
2.6682 3.16569 45.5394
2.60661 3.16435 45.5396
2.53903 3.16328 45.4719
2.47163 3.16222 45.404
2.3487 3.15955 45.4036
2.28722 3.15822 45.4031
2.22572 3.15688 45.4026
2.16422 3.15555 45.4019
2.1027 3.15421 45.4011
2.036 3.15317 45.3328
0.375081 3.09009 44.9425
0.311467 3.08915 44.8724
0.250519 3.08782 44.8679
0.189579 3.08648 44.8633
0.0677221 3.08382 44.8537
0.00471924 3.08289 44.7836
-0.179515 3.07931 44.7029
-1.73868 3.01752 44.3468
-2.44427 2.97287 44.2532
-2.50242 2.97214 44.1807
-2.56192 2.97084 44.1708
-2.6214 2.96954 44.1609
-2.68084 2.96824 44.1509
-2.74025 2.96694 44.1407
-2.79963 2.96564 44.1305
-2.85896 2.96435 44.1201
-2.91827 2.96305 44.1097
-2.97754 2.96176 44.0991
-3.03677 2.96047 44.0884
-3.09596 2.95918 44.0776
-3.15512 2.95789 44.0667
-3.21424 2.9566 44.0557
-3.27332 2.95532 44.0446
-3.33236 2.95404 44.0333
-3.39136 2.95275 44.022
-3.45032 2.95147 44.0106
-4.89412 2.89154 43.6449
-5.19253 2.88397 43.6948
-5.25015 2.88274 43.6802
-5.30772 2.88152 43.6656
-5.36523 2.8803 43.6508
-5.42269 2.87908 43.6359
-5.4801 2.87786 43.6209
-5.53745 2.87664 43.6059
-5.66357 2.87276 43.6963
-5.7782 2.87034 43.6653
-5.83542 2.86913 43.6497
8.35056 3.32889 47.7261
8.25749 3.32752 47.5857
8.19604 3.32622 47.5981
8.13453 3.32491 47.6103
7.70538 3.28839 47.3118
7.55347 3.28584 47.184
7.49204 3.28452 47.1947
7.43054 3.28319 47.2052
7.36898 3.28187 47.2156
7.2795 3.28067 47.0769
7.21801 3.27934 47.087
7.15646 3.27802 47.0968
7.08132 3.27677 47.0325
7.00631 3.27552 46.968
5.69006 3.2214 46.556
5.61724 3.22024 46.4904
5.5555 3.21891 46.4967
5.3489 3.21527 46.3714
5.28719 3.21394 46.3771
5.22543 3.21261 46.3827
5.01991 3.20899 46.2562
4.95818 3.20767 46.2612
4.89642 3.20634 46.2661
4.83462 3.20501 46.2709
4.77521 3.1895 46.2465
4.70393 3.18836 46.1802
4.6328 3.18728 46.1141
4.57363 3.17179 46.0898
4.50283 3.1707 46.0239
2.79111 3.10824 45.5452
2.72954 3.10689 45.5456
2.53876 3.1032 45.4783
2.47135 3.10222 45.4104
2.40989 3.10088 45.4102
2.34841 3.09953 45.4099
2.28693 3.09818 45.4094
2.22543 3.09683 45.4088
