1.83644 1.98344 43.7123
1.76803 1.98603 43.589
1.70905 1.98448 43.5874
1.64973 1.96175 43.417
1.59098 1.9602 43.4152
1.5237 1.96284 43.2937
1.4651 1.9613 43.2917
1.2826 1.93994 43.0018
1.2206 1.94051 42.941
1.15876 1.94109 42.8801
0.169526 1.87124 41.8998
0.00115697 1.85111 41.6272
-0.0552104 1.84966 41.6229
-0.11157 1.84821 41.6185
-0.166456 1.83898 41.4856
-0.217529 1.82544 41.4602
-0.277001 1.82835 41.3493
-0.332972 1.82692 41.3446
-0.551475 1.8059 41.0738
-0.607044 1.80448 41.0688
-0.662602 1.80307 41.0636
-0.718147 1.80166 41.0584
-1.67849 1.79706 41.4349
-2.50482 1.81433 42.0772
-2.62717 1.82001 42.1911
6.95789 2.30675 50.8474
6.86142 2.30869 50.6788
6.01687 2.22987 49.3373
5.86281 2.21593 49.1499
5.30888 2.17887 48.3647
5.21141 2.1831 48.1351
5.12565 2.18534 47.9847
4.98135 2.15795 47.776
4.90723 2.15825 47.7039
4.83327 2.15856 47.6317
4.7547 2.13317 47.4226
4.68144 2.13349 47.3515
4.60834 2.13383 47.2804
3.68043 2.06133 46.0563
3.46343 2.04014 45.6601
3.38723 2.04267 45.5256
3.31872 2.04312 45.4592
3.25038 2.04357 45.3926
3.05362 2.01861 45.141
2.9861 2.0191 45.0752
2.91228 2.02167 44.9439
2.02025 1.94928 43.9562
1.96 1.93711 43.8684
1.89513 1.92713 43.7199
1.836 1.92556 43.7185
1.76757 1.92831 43.5952
1.59051 1.9027 43.4212
1.52322 1.9055 43.2997
1.39788 1.90675 43.1766
1.21631 1.88581 42.8884
0.16893 1.81566 41.905
0.117702 1.79435 41.7489
0.000546779 1.7959 41.6323
-0.0558221 1.79444 41.628
-0.277627 1.77349 41.3543
-0.333599 1.77205 41.3496
-0.391072 1.77286 41.2919
-0.607686 1.74996 41.0736
-0.663244 1.74854 41.0685
-0.776356 1.75025 40.9541
-0.831734 1.74884 40.9487
-0.887097 1.74744 40.9432
-1.04353 1.72399 40.7833
-1.1647 1.74505 40.8113
-2.50539 1.75795 42.0812
-3.36388 1.78976 42.7472
-4.43737 1.81262 43.6156
7.54969 2.28713 52.0575
7.31815 2.26486 51.4411
7.15255 2.2502 51.2371
7.0555 2.2374 51.027
6.26284 2.19067 49.7315
6.10502 2.1912 49.5766
5.29783 2.11704 48.295
5.21149 2.11948 48.1437
5.12803 2.10798 47.9612
5.05578 2.09441 47.8568
4.98138 2.0948 47.7844
4.91753 2.09309 47.7882
4.75469 2.07049 47.4308
4.68141 2.0709 47.3597
4.59865 2.07344 47.2145
3.68024 2.0004 46.0637
3.59494 2.00525 45.8574
3.53325 2.00359 45.8587
3.38698 1.98246 45.5328
3.31846 1.98299 45.4664
3.25356 1.97037 45.3726
3.19594 1.95557 45.3462
3.12102 1.95834 45.2137
3.05333 1.95889 45.148
1.89469 1.86923 43.7261
1.76711 1.87057 43.6013
1.39738 1.84954 43.1825
1.33893 1.84799 43.1803
1.28159 1.826 43.0135
1.21579 1.82899 42.8942
0.0563123 1.74213 41.6417
-6.55688e-005 1.74066 41.6375
-0.0564359 1.7392 41.6331
-0.334228 1.71716 41.3546
-0.391708 1.71804 41.2969
-0.449033 1.71893 41.2392
-0.497174 1.69829 41.0886
-0.552757 1.69685 41.0836
-0.608329 1.69543 41.0785
-0.663888 1.694 41.0733
-1.45089 1.68919 41.2396
7.45038 2.19036 51.8085
7.35033 2.19271 51.6336
7.25234 2.16515 51.3792
7.15383 2.16756 51.2076
7.05599 2.16996 51.0371
6.70195 2.14593 50.4631
6.51279 2.15083 50.1327
6.43416 2.13659 50.0172
6.26314 2.12494 49.741
6.19718 2.12316 49.7471
5.30909 2.05098 48.382
5.1304 2.03068 47.9376
5.05582 2.03115 47.8653
4.98141 2.03163 47.7928
4.90726 2.0321 47.7207
4.67155 2.01051 47.2935
4.59861 2.01101 47.2226
4.52583 2.01152 47.1517
3.67211 1.94173 46.0016
3.59472 1.94458 45.8648
3.52111 1.93422 45.7011
3.46296 1.91933 45.6747
3.38673 1.92222 45.5401
3.32542 1.92056 45.541
3.18166 1.90017 45.2201
3.12074 1.89851 45.2207
3.05303 1.89914 45.155
2.98548 1.89978 45.0891
2.92469 1.89814 45.0894
2.01939 1.83283 43.9688
1.82564 1.8144 43.6091
1.76665 1.81281 43.6075
1.69861 1.81589 43.4847
1.63978 1.81431 43.4829
1.58086 1.79233 43.3137
1.52225 1.79076 43.3117
1.21527 1.77215 42.9001
0.16773 1.70445 41.9155
-0.000680047 1.68541 41.6426
-0.0570518 1.68394 41.6383
-0.117192 1.68725 41.5263
-0.1734 1.6858 41.5218
-0.229599 1.68434 41.5171
-0.278885 1.66371 41.3643
-0.334859 1.66226 41.3595
-0.393868 1.66561 41.249
-0.608974 1.64087 41.0833
-0.777671 1.64144 40.9636
-0.83305 1.64003 40.9582
-0.888415 1.63862 40.9526
6.79791 2.07654 50.6396
6.70235 2.07922 50.4729
6.60743 2.08189 50.3072
6.42225 2.05828 49.906
6.26343 2.05918 49.7504
6.19746 2.05737 49.7565
5.30918 1.98699 48.3906
5.04527 1.97018 47.7975
4.98144 1.96843 47.8013
4.90727 1.96899 47.7291
4.83581 1.95583 47.6252
4.75466 1.94504 47.4473
4.67152 1.94797 47.3017
4.60821 1.94623 47.3048
3.67191 1.88085 46.0091
3.46273 1.85889 45.682
3.38648 1.86196 45.5473
3.31793 1.86265 45.4808
3.05273 1.83937 45.162
2.98517 1.84009 45.0961
2.9113 1.84319 44.9647
2.01896 1.77457 43.9752
1.94882 1.76759 43.7644
1.8938 1.75338 43.7386
1.82517 1.75662 43.6153
1.76619 1.75503 43.6137
1.58037 1.73494 43.3197
1.52176 1.73336 43.3177
1.45483 1.73664 43.1967
1.39637 1.73506 43.1944
1.21474 1.71529 42.9059
0.164855 1.65127 41.8661
0.0550842 1.63162 41.6521
-0.00129664 1.63014 41.6478
-0.0576698 1.62867 41.6434
-0.279517 1.60879 41.3693
-0.335493 1.60734 41.3645
-0.394514 1.61084 41.254
-0.450324 1.6094 41.2491
-0.722938 1.58842 40.9738
-0.778331 1.58701 40.9684
-0.833711 1.58559 40.963
-0.889076 1.58419 40.9574
-1.05096 1.57316 40.8172
-1.1061 1.57177 40.8113
-1.16672 1.5822 40.8251
-1.45217 1.57925 41.2485
6.70275 2.01247 50.4828
6.6078 2.01536 50.317
6.26373 1.99339 49.7599
6.18625 1.97963 49.6462
6.10907 1.96594 49.5334
5.2981 1.9254 48.321
5.13051 1.90389 47.9547
5.0559 1.90454 47.8823
4.98146 1.9052 47.8097
4.75465 1.88228 47.4555
4.67148 1.8854 47.3099
4.58884 1.8885 47.165
3.66383 1.82242 45.9475
3.59427 1.82317 45.8797
3.38622 1.80167 45.5546
3.31766 1.80244 45.488
3.24927 1.80322 45.4213
3.19513 1.77549 45.3675
3.12015 1.77878 45.2348
3.05242 1.77958 45.169
2.98486 1.78038 45.1031
1.82471 1.69883 43.6215
1.76572 1.69723 43.6199
1.69765 1.70063 43.4971
1.45432 1.67938 43.2027
1.39587 1.6778 43.2004
1.33389 1.66887 43.0567
1.28006 1.65493 43.0311
1.21422 1.6584 42.9118
-0.00191531 1.57486 41.653
-0.118455 1.57699 41.5365
-0.174666 1.57552 41.532
-0.395161 1.55605 41.259
-0.450972 1.5546 41.2541
-0.50814 1.55571 41.1965
-0.559924 1.54499 41.1186
-0.61027 1.53172 41.0931
-0.7236 1.53398 40.9787
-0.778994 1.53256 40.9732
-0.834374 1.53115 40.9677
-1.1674 1.52788 40.8298
6.70314 1.94569 50.4926
6.60817 1.9488 50.3268
6.51647 1.92314 50.0879
5.29819 1.86147 48.3298
5.05594 1.84119 47.8908
4.98149 1.84194 47.8182
4.90729 1.84268 47.7459
4.67144 1.8228 47.3181
4.58878 1.8261 47.1732
3.66362 1.76159 45.9549
3.59405 1.76243 45.8871
3.52372 1.73966 45.6956
3.45476 1.7405 45.6288
3.38596 1.74136 45.5619
3.11986 1.71888 45.2419
3.05212 1.71976 45.1761
2.98454 1.72064 45.1101
2.01303 1.66059 43.9259
1.82425 1.64102 43.6278
1.76526 1.6394 43.6261
1.69717 1.64297 43.5032
1.5794 1.6201 43.3319
1.45382 1.6221 43.2087
1.20992 1.6041 42.8596
0.22268 1.53899 41.9355
0.161349 1.54272 41.8219
-0.119089 1.52183 41.5417
-0.280788 1.49891 41.3794
-0.336765 1.49744 41.3746
-0.39581 1.50125 41.264
-0.724263 1.47952 40.9835
-0.779658 1.4781 40.9781
-0.835038 1.47668 40.9725
-0.890405 1.47527 40.9669
6.86607 1.87747 50.6622
6.70354 1.87889 50.5025
6.51682 1.85688 50.0976
6.42323 1.86025 49.9348
6.2643 1.86171 49.779
5.28718 1.80014 48.2607
5.05598 1.77782 47.8993
4.9815 1.77865 47.8267
4.89697 1.78212 47.6785
4.83835 1.75315 47.6186
4.7546 1.75667 47.4721
4.67139 1.76018 47.3264
3.6634 1.70074 45.9624
3.45451 1.68009 45.6361
3.3857 1.68103 45.5692
3.31712 1.68196 45.5025
3.05181 1.65992 45.1831
2.98422 1.66088 45.1171
2.91395 1.6517 44.9593
2.01258 1.60235 43.9323
1.94746 1.59357 43.7833
1.82378 1.58318 43.634
1.5789 1.56265 43.338
1.51177 1.5664 43.2169
1.45331 1.5648 43.2147
1.39484 1.5632 43.2124
1.20938 1.54726 42.8654
0.160728 1.48719 41.8272
0.104119 1.48569 41.823
0.0532263 1.46573 41.6677
-0.00315884 1.46423 41.6634
-0.119726 1.46666 41.5468
-0.337404 1.44247 41.3796
-0.396461 1.44642 41.269
-0.452274 1.44497 41.264
-0.509455 1.44622 41.2064
-0.780323 1.42362 40.9829
-0.835705 1.4222 40.9773
-0.891962 1.42349 40.9201
-0.948064 1.42479 40.8629
-1.05844 1.42199 40.8512
-1.11361 1.42059 40.8452
6.70393 1.81205 50.5123
6.42355 1.79417 49.9445
6.26459 1.79583 49.7885
6.17558 1.77118 49.5558
5.28726 1.73626 48.2695
5.21649 1.70981 48.1302
5.13066 1.7135 47.9805
5.05601 1.71441 47.9079
4.98152 1.71534 47.8352
4.81805 1.69566 47.4772
4.74462 1.69659 47.406
4.67135 1.69753 47.3346
4.58865 1.70121 47.1896
3.66318 1.63987 45.97
3.59358 1.64087 45.9021
3.44675 1.62241 45.5756
3.38544 1.62067 45.5765
3.31684 1.62169 45.5098
3.24841 1.62271 45.443
3.18725 1.59796 45.3223
3.11926 1.59901 45.2561
3.0447 1.60282 45.124
1.8823 1.52697 43.642
1.82331 1.52533 43.6403
1.75503 1.52921 43.5175
1.69619 1.52759 43.5156
1.51126 1.50909 43.223
1.4528 1.50748 43.2208
1.3279 1.50979 43.0978
1.27071 1.48924 42.932
1.20884 1.4904 42.8713
0.221462 1.42761 41.9461
-0.0641406 1.41295 41.5565
-0.120364 1.41147 41.552
-0.452928 1.39013 41.269
-0.510115 1.39145 41.2114
-0.567147 1.39277 41.1537
-0.613495 1.37065 41.0558
-0.670185 1.37199 40.9986
-0.725595 1.37056 40.9932
-0.780991 1.36913 40.9877
-0.836373 1.3677 40.9821
-0.89174 1.36629 40.9764
-1.45476 1.3592 41.2666
-2.1527 1.36313 41.7916
6.58125 1.75463 50.1847
6.51752 1.72427 50.117
6.42387 1.72807 49.9541
6.35772 1.72613 49.9603
5.19472 1.65185 47.9852
5.13071 1.64998 47.9891
5.05604 1.65098 47.9165
4.98154 1.652 47.8437
4.89696 1.65586 47.6954
4.74458 1.63382 47.4143
4.6713 1.63485 47.3429
4.58858 1.63873 47.1979
3.65506 1.58182 45.9084
3.57788 1.58575 45.7722
3.51966 1.57104 45.7455
3.454 1.55918 45.6508
3.38517 1.56029 45.5838
3.32382 1.55854 45.5845
3.18696 1.53791 45.3295
3.11896 1.53904 45.2633
3.04438 1.54302 45.1311
2.97692 1.54414 45.0654
2.00665 1.48867 43.8835
1.82284 1.46745 43.6466
1.75455 1.4715 43.5237
1.6957 1.46987 43.5218
1.63226 1.46161 43.3759
1.57791 1.44768 43.3502
1.51075 1.45176 43.2291
1.45228 1.45014 43.2268
1.27018 1.43228 42.9379
1.2083 1.43353 42.8772
0.218476 1.37474 41.8967
0.159482 1.37607 41.8378
0.102869 1.37456 41.8335
-0.0647797 1.35775 41.5617
-0.121004 1.35626 41.5572
-0.292979 1.35751 41.436
-0.397769 1.33673 41.2791
-0.453584 1.33527 41.274
-0.509387 1.33381 41.2688
-0.726263 1.31605 40.9981
-0.78166 1.31462 40.9925
-0.893311 1.31462 40.9297
-0.949426 1.31607 40.8724
-1.00462 1.31466 40.8665
-1.05981 1.31326 40.8606
-1.11497 1.31186 40.8545
-1.6341 1.31813 41.3963
-2.57963 1.32979 42.1469
6.86736 1.67626 50.6922
6.51786 1.65792 50.1268
6.42419 1.66193 49.9638
5.36298 1.60734 48.3607
5.27629 1.61138 48.2092
5.13075 1.58643 47.9977
5.05607 1.58753 47.9251
4.97111 1.59159 47.7764
4.89695 1.59269 47.7039
4.81801 1.56992 47.494
4.74455 1.57103 47.4227
3.73251 1.51688 46.0529
3.52275 1.49751 45.7251
3.45374 1.49869 45.6582
3.3849 1.49988 45.5911
3.31628 1.50106 45.5244
3.11866 1.47905 45.2704
3.04406 1.48321 45.1382
2.97658 1.48441 45.0725
2.90927 1.48561 45.0067
2.00619 1.43046 43.8899
1.94608 1.41936 43.8024
1.88136 1.41121 43.6546
1.82236 1.40955 43.6528
1.57742 1.39017 43.3563
1.51024 1.39441 43.2352
1.45177 1.39278 43.2329
1.38515 1.39701 43.1123
0.215477 1.32201 41.8474
0.158856 1.32049 41.8432
0.100038 1.32189 41.7845
0.0413752 1.32331 41.7257
-0.00503926 1.29817 41.679
-0.0654207 1.30253 41.5669
-0.121647 1.30103 41.5623
-0.398426 1.28186 41.2841
-0.454241 1.28039 41.279
-0.512836 1.28478 41.1688
-0.894895 1.2631 40.8829
-0.950109 1.26168 40.8772
-1.00531 1.26027 40.8713
-1.06049 1.25887 40.8653
-1.11565 1.25747 40.8592
-1.45607 1.24909 41.2756
-1.63475 1.26284 41.4008
-2.58023 1.27322 42.1509
-5.90574 1.33213 44.7828
6.86779 1.60913 50.7023
6.70509 1.61134 50.5421
6.49064 1.59775 49.9674
6.42451 1.59576 49.9735
6.26853 1.57006 49.7444
5.36306 1.54328 48.3696
5.27635 1.54753 48.218
5.20575 1.52167 48.0794
5.13079 1.52286 48.0064
5.05609 1.52404 47.9337
4.98156 1.52523 47.8608
4.81799 1.50702 47.5024
4.74451 1.50821 47.431
4.6614 1.51248 47.2856
4.58844 1.51368 47.2144
3.7323 1.45585 46.0605
3.65459 1.46015 45.9235
3.45348 1.43818 45.6656
3.38463 1.43945 45.5985
3.316 1.44071 45.5317
3.24753 1.44199 45.4648
3.17931 1.4208 45.2773
3.11835 1.41903 45.2775
3.04374 1.42336 45.1453
1.88089 1.3533 43.6609
1.82189 1.35163 43.6591
1.75356 1.35601 43.5362
1.69471 1.35436 43.5343
1.50972 1.33704 43.2413
1.45125 1.3354 43.2389
1.38461 1.3398 43.1183
1.3263 1.33817 43.1158
1.26911 1.31832 42.9498
1.20721 1.31971 42.8891
0.217236 1.2634 41.9075
0.158227 1.26489 41.8485
-0.0660637 1.24729 41.5722
-0.122291 1.24579 41.5675
-0.182178 1.25029 41.4559
-0.238241 1.2488 41.4511
-0.513507 1.23004 41.1738
-0.569157 1.22858 41.1686
-0.626032 1.23012 41.111
-0.672194 1.20843 41.0133
-0.727606 1.20699 41.0078
-0.783003 1.20555 41.0022
-0.89558 1.2087 40.8878
-0.950794 1.20728 40.8819
-1.00599 1.20587 40.876
-1.06117 1.20447 40.87
-1.11634 1.20307 40.8639
-1.17149 1.20167 40.8577
-1.63541 1.20754 41.4052
-1.6912 1.20621 41.3979
-3.13201 1.23077 42.5993
-3.50275 1.23047 42.9204
6.86821 1.54197 50.7123
6.67695 1.55082 50.3795
6.61289 1.52066 50.3103
5.19487 1.46118 48.0113
5.13083 1.45925 48.015
5.04547 1.46372 47.866
4.98157 1.46181 47.8694
4.73448 1.44855 47.365
4.66134 1.44983 47.2939
4.59108 1.43792 47.192
3.73208 1.39479 46.0681
3.65436 1.39927 45.9311
3.5882 1.38776 45.8352
3.52225 1.37629 45.74
3.45322 1.37764 45.673
3.38435 1.37899 45.6059
3.17901 1.36077 45.2845
3.11113 1.36213 45.2185
3.04341 1.3635 45.1525
2.00527 1.31398 43.9028
1.82141 1.29369 43.6654
1.75307 1.29824 43.5425
1.68968 1.29967 43.4804
1.63074 1.28893 43.3944
1.57204 1.27819 43.3091
1.50921 1.27965 43.2474
1.45073 1.278 43.245
1.20667 1.26278 42.895
0.216612 1.20771 41.9128
0.157597 1.20927 41.8538
0.0987653 1.21082 41.7951
-0.122937 1.19053 41.5727
-0.182836 1.19518 41.4611
-0.2389 1.19369 41.4563
-0.294954 1.19221 41.4513
-0.343916 1.17354 41.2992
-0.399745 1.17206 41.2942
-0.455562 1.17059 41.289
-0.728279 1.15243 41.0127
-0.896266 1.15428 40.8926
-0.95148 1.15287 40.8867
-1.00668 1.15145 40.8808
-1.06186 1.15005 40.8748
-1.11703 1.14865 40.8686
-1.17218 1.14725 40.8624
-1.63606 1.15222 41.4097
-2.94071 1.16477 42.3656
-3.81574 1.17968 43.1416
6.86863 1.47477 50.7224
6.58521 1.46073 50.1499
6.42514 1.46334 49.993
5.34075 1.42168 48.2318
5.13087 1.39562 48.0237
5.04549 1.40029 47.8746
4.96065 1.40493 47.7263
4.89944 1.38973 47.6977
4.81794 1.38112 47.5192
4.73443 1.38578 47.3734
3.72385 1.33696 46.0067
3.522 1.31565 45.7475
3.45296 1.31708 45.6804
3.38408 1.31851 45.6132
3.31542 1.31995 45.5463
3.10389 1.3054 45.1595
3.04308 1.30361 45.1596
2.9762 1.28316 44.9749
2.0048 1.25571 43.9093
1.93976 1.24814 43.7603
1.87994 1.23742 43.6736
1.81618 1.23893 43.6113
1.75257 1.24044 43.5488
1.56716 1.2239 43.2558
1.50869 1.22224 43.2535
1.44604 1.22376 43.192
1.38354 1.2253 43.1304
0.156965 1.15363 41.8592
0.0981263 1.15526 41.8004
0.0394433 1.15689 41.7416
-0.0119744 1.14366 41.7159
-0.0673553 1.13675 41.5826
-0.123585 1.13525 41.5779
-0.183496 1.14005 41.4663
-0.400407 1.11714 41.2992
-0.456225 1.11567 41.2941
-0.514855 1.1205 41.1838
-0.570506 1.11904 41.1785
-0.626145 1.11758 41.1731
-0.896953 1.09986 40.8974
-0.952168 1.09843 40.8915
-1.00737 1.09702 40.8856
-1.06255 1.09561 40.8795
-1.11772 1.09421 40.8733
-1.63672 1.09689 41.4142
-1.69251 1.09556 41.4068
-3.62369 1.10584 43.02
-3.81624 1.12139 43.1451
6.86905 1.40754 50.7325
6.42545 1.39708 50.0028
5.34081 1.35776 48.2407
5.2788 1.34242 48.2116
5.20591 1.3305 48.1056
5.1309 1.33196 48.0324
4.88139 1.32007 47.5247
4.81791 1.31813 47.5277
4.73438 1.32299 47.3818
4.66121 1.32444 47.3106
3.72362 1.27595 46.0143
3.65388 1.27745 45.9463
3.44515 1.25984 45.62
3.3838 1.25801 45.6206
3.30784 1.26286 45.4863
3.17839 1.24065 45.2989
3.10357 1.2455 45.1667
3.04275 1.2437 45.1667
1.87945 1.17945 43.68
1.81569 1.18103 43.6176
1.75207 1.18263 43.5551
1.68867 1.18421 43.4929
1.4455 1.16641 43.1981
1.383 1.16802 43.1365
1.3207 1.16963 43.0751
1.26748 1.14722 42.9677
1.20556 1.14884 42.9069
0.21536 1.09627 41.9236
0.156331 1.09798 41.8645
-0.0680039 1.08146 41.5878
-0.126158 1.08318 41.5297
-0.184158 1.0849 41.4715
-0.240224 1.08341 41.4666
-0.515531 1.06571 41.1889
-0.571183 1.06424 41.1835
-0.628076 1.066 41.1259
-0.679516 1.05625 41.0482
-0.729632 1.04327 41.0225
-0.897642 1.04541 40.9022
-0.952857 1.04399 40.8963
-1.00806 1.04257 40.8903
-1.11841 1.03976 40.8781
-1.17356 1.03836 40.8718
-1.52597 1.05075 41.3276
-1.63738 1.04155 41.4187
-3.13369 1.05865 42.6107
-5.10612 1.08584 44.1384
-5.44537 1.08737 44.4811
6.86947 1.34028 50.7427
6.6805 1.32269 50.3336
6.5859 1.32779 50.1697
6.24317 1.31348 49.6168
5.20595 1.26673 48.1144
5.13093 1.26828 48.0411
5.04551 1.27334 47.8919
4.88137 1.25708 47.5332
4.80776 1.25861 47.4618
4.73433 1.26016 47.3902
4.66114 1.26171 47.319
4.59086 1.25021 47.2168
3.72339 1.21491 46.022
3.65363 1.2165 45.9539
3.58746 1.20537 45.8578
3.52149 1.19428 45.7624
3.45242 1.19588 45.6953
3.38352 1.19748 45.628
3.23905 1.18237 45.3059
3.17808 1.18055 45.3062
3.10324 1.18558 45.1739
3.03563 1.18718 45.1081
2.96819 1.18879 45.0422
2.00386 1.1391 43.9222
1.81043 1.12649 43.5634
1.75157 1.12479 43.5614
1.68816 1.12646 43.4992
1.6249 1.12813 43.4368
1.5705 1.10566 43.3276
1.50764 1.10735 43.2658
1.44497 1.10903 43.2042
1.20501 1.09185 42.9128
0.214731 1.04052 41.929
0.155695 1.04231 41.8699
0.0968426 1.04408 41.8111
0.038146 1.04586 41.7522
-0.184821 1.02974 41.4766
-0.240888 1.02824 41.4717
-0.356221 1.03185 41.3555
-0.516209 1.0109 41.1939
-0.571862 1.00943 41.1885
-0.787858 0.993818 40.9186
-0.898333 0.990949 40.907
-0.953548 0.989524 40.9011
-1.00875 0.988106 40.8951
-1.1191 0.985289 40.8828
-3.13426 1.00126 42.6145
-5.44567 1.02678 44.4838
6.58625 1.26128 50.1796
6.42607 1.26447 50.0224
6.24344 1.2477 49.6265
5.19504 1.20656 48.0464
5.12019 1.20819 47.9736
5.04552 1.20982 47.9006
4.96312 1.20193 47.7202
4.88134 1.19405 47.5417
4.80772 1.19568 47.4702
3.73118 1.15031 46.0987
3.52123 1.13357 45.7699
3.4446 1.13878 45.6349
3.38323 1.13693 45.6354
3.30724 1.14214 45.501
3.10291 1.12563 45.1811
3.02851 1.13082 45.0495
2.95456 1.13598 44.9186
2.00339 1.08076 43.9287
1.93832 1.07381 43.7796
1.87849 1.06344 43.6927
1.8147 1.06518 43.6303
1.75107 1.06693 43.5677
1.5656 1.05156 43.2744
1.50711 1.04988 43.272
1.44444 1.05164 43.2104
1.38192 1.05341 43.1487
0.155057 0.986615 41.8753
0.096198 0.988463 41.8164
0.0374946 0.99032 41.7575
-0.0210264 0.992169 41.6988
-0.0693066 0.970829 41.5983
-0.127474 0.972691 41.5401
-0.185486 0.974563 41.4819
-0.516888 0.956069 41.1989
-0.572542 0.954601 41.1935
-0.630711 0.959869 41.0837
-1.00944 0.933626 40.8999
-1.11979 0.930806 40.8875
-1.46001 0.918388 41.3029
-1.69448 0.929485 41.4202
-5.44598 0.966187 44.4866
-5.71971 0.975117 44.7215
6.8703 1.20567 50.763
6.77422 1.21122 50.5958
6.58659 1.19473 50.1895
6.42637 1.19812 50.0322
6.36312 1.16868 49.9633
6.2437 1.18189 49.6361
5.36353 1.15834 48.423
5.28127 1.13737 48.2051
5.20604 1.13909 48.1319
5.12021 1.14455 47.9823
4.88131 1.131 47.5503
4.80768 1.13271 47.4787
4.73421 1.13444 47.4071
4.67084 1.13246 47.4097
3.72292 1.09277 46.0373
3.65314 1.09453 45.9692
3.44432 1.07822 45.6424
3.37555 1.07998 45.5755
3.30694 1.08174 45.5084
3.23843 1.06213 45.3205
3.17745 1.06028 45.3207
3.10257 1.06566 45.1884
1.878 1.00541 43.6991
1.8142 1.00723 43.6366
1.75056 1.00905 43.574
1.68713 1.01087 43.5117
1.4439 0.994223 43.2165
1.38137 0.996068 43.1548
1.31904 0.997904 43.0933
1.26136 0.987851 43.0088
1.20389 0.9778 42.9248
0.211049 0.93246 41.8851
0.154418 0.930908 41.8807
0.0933094 0.936297 41.7674
-0.130074 0.920881 41.4919
-0.186153 0.919367 41.4871
-0.242222 0.91786 41.4821
-0.301677 0.923252 41.3709
-0.573224 0.899755 41.1985
-0.631404 0.905172 41.0887
-0.68689 0.903716 41.0831
-0.738172 0.894287 41.0058
-0.789242 0.884857 40.9284
-0.844488 0.883415 40.9226
-0.899719 0.88198 40.9167
-0.954934 0.880551 40.9107
-1.01013 0.87913 40.9047
-1.12048 0.876308 40.8923
-1.18116 0.886352 40.9057
6.87071 1.13832 50.7732
6.77461 1.14408 50.606
6.58693 1.12815 50.1995
6.33646 1.11031 49.8062
6.24396 1.11604 49.6458
6.15208 1.12175 49.4863
5.20608 1.07523 48.1407
5.12023 1.08089 47.9911
5.04552 1.08271 47.918
4.80763 1.06972 47.4873
4.73415 1.07154 47.4156
4.66364 1.06041 47.3128
4.59336 1.04934 47.2109
3.72268 1.03166 46.045
3.65289 1.03351 45.9768
3.5207 1.01206 45.785
3.44403 1.01763 45.6499
3.38266 1.01576 45.6503
3.23812 1.00197 45.3279
3.1701 1.00382 45.2618
3.10224 1.00567 45.1956
3.0278 1.01121 45.0639
1.99735 0.967664 43.8801
1.80893 0.952877 43.5825
1.75006 0.951155 43.5804
1.68661 0.953054 43.518
1.62333 0.954962 43.4556
1.56894 0.932955 43.3462
1.50605 0.934875 43.2843
1.44336 0.936787 43.2226
0.605666 0.913069 42.3379
0.490411 0.905303 42.1964
0.438181 0.892034 42.1707
0.375889 0.897561 42.0559
0.319025 0.895992 42.0517
0.153776 0.875183 41.8861
0.0926557 0.880724 41.7728
0.0361865 0.879184 41.7682
-0.186822 0.864154 41.4923
-0.242892 0.862644 41.4873
-0.302358 0.868186 41.376
-0.358263 0.866692 41.3709
-0.518252 0.846367 41.209
-0.573907 0.844893 41.2035
-0.955629 0.826041 40.9156
-1.01083 0.824619 40.9095
-1.12118 0.821794 40.897
-1.81976 0.832283 41.5611
-3.63527 0.847731 42.9664
-3.81872 0.829744 43.1626
-5.10754 0.845699 44.15
-6.26655 0.856817 45.1744
6.58727 1.06154 50.2095
6.24422 1.05017 49.6555
6.15231 1.05609 49.4959
5.19514 1.01531 48.0728
5.10946 1.02115 47.9236
5.02433 1.02697 47.7751
4.96559 0.998969 47.7142
4.88125 1.00481 47.5674
4.80759 1.0067 47.4958
3.72244 0.970531 46.0527
3.52043 0.951263 45.7925
3.44375 0.957023 45.6574
3.37495 0.958945 45.5904
3.30632 0.960878 45.5232
3.16273 0.947521 45.2029
3.1019 0.945656 45.2028
3.02745 0.95137 45.0711
2.96379 0.940981 44.9788
2.05612 0.911105 43.8884
1.99687 0.909353 43.8866
1.93187 0.903025 43.7381
1.87702 0.889276 43.7119
1.8132 0.89125 43.6494
1.74955 0.893236 43.5867
1.69067 0.891512 43.5845
1.50552 0.877342 43.2905
1.44282 0.879332 43.2288
1.38027 0.881331 43.167
1.31793 0.883323 43.1055
1.07845 0.875847 42.8953
1.01791 0.869704 42.7539
0.956649 0.87171 42.6933
0.900186 0.861992 42.6102
0.842577 0.860359 42.6067
0.778552 0.866027 42.4895
0.725799 0.852681 42.4638
0.6623 0.85835 42.3474
0.494582 0.837519 42.1804
0.437555 0.835928 42.1763
0.37525 0.841609 42.0615
0.318384 0.840035 42.0572
0.0920002 0.825135 41.7782
0.0355298 0.823591 41.7735
-0.0230111 0.825663 41.7148
-0.076335 0.816246 41.635
-0.129461 0.806831 41.5558
-0.187492 0.808924 41.4975
-0.243563 0.80741 41.4925
-0.463269 0.792975 41.2194
-0.518937 0.791491 41.214
-0.632795 0.795728 41.0987
-0.688282 0.794269 41.0931
-0.743756 0.792817 41.0874
-1.70831 0.78655 41.4745
-1.82042 0.776646 41.5655
-2.95827 0.789918 42.4359
-3.63856 0.785895 43.0281
6.87153 1.00351 50.7936
6.58761 0.994901 50.2194
6.42873 0.985396 50.0244
6.33702 0.978106 49.8256
6.24448 0.984267 49.6652
5.3547 0.956481 48.3386
5.28143 0.945426 48.2317
5.19517 0.951497 48.0816
4.95515 0.939682 47.648
4.88122 0.941674 47.576
4.80754 0.943656 47.5043
4.73403 0.94565 47.4326
4.67062 0.943625 47.435
3.7222 0.909373 46.0604
3.65238 0.911385 45.9922
3.50483 0.898299 45.6644
3.44346 0.896388 45.6649
3.36724 0.902302 45.5304
3.23749 0.881589 45.3425
3.16239 0.887494 45.2102
3.10156 0.885617 45.2101
2.57319 0.877279 44.6331
2.50119 0.883142 44.5044
2.37767 0.8629 44.325
2.31229 0.864929 44.261
2.24708 0.866968 44.1969
2.18076 0.860757 44.0461
2.12132 0.858984 44.0445
2.06081 0.848969 43.9565
1.8127 0.833231 43.6558
1.74904 0.835295 43.5931
1.68557 0.83735 43.5307
1.43806 0.825631 43.1759
1.37972 0.823934 43.1731
1.31737 0.826002 43.1116
1.25967 0.816291 43.0269
1.20221 0.80658 42.9428
1.14039 0.808669 42.8817
1.07878 0.81075 42.8208
1.01732 0.812841 42.7599
0.843341 0.795712 42.5335
0.782608 0.797815 42.4732
0.725189 0.796189 42.4695
0.661678 0.802014 42.3531
0.37461 0.785639 42.067
0.317742 0.784061 42.0627
0.265765 0.766817 41.9058
0.209123 0.765245 41.9014
0.091343 0.769527 41.7836
-0.132083 0.755201 41.5077
-0.188164 0.753677 41.5027
-0.246023 0.755835 41.4446
-0.303726 0.758003 41.3864
-0.633493 0.740983 41.1037
-0.68898 0.739521 41.0981
-0.745578 0.741717 41.0405
-0.796675 0.732609 40.963
-0.846576 0.719847 40.9372
-0.901808 0.718407 40.9313
-0.957024 0.716975 40.9252
-1.01303 0.719206 40.8679
-1.82109 0.720994 41.57
-1.93364 0.710924 41.6608
-2.95886 0.732773 42.4399
-3.63633 0.731631 42.9737
-3.8197 0.713011 43.1696
-4.39547 0.723351 43.6157
6.77809 0.915375 50.5589
6.58794 0.928229 50.2294
6.15278 0.92468 49.5152
5.34573 0.883501 48.2372
5.28148 0.881388 48.2407
5.1952 0.88766 48.0905
5.10947 0.893904 47.9412
5.04552 0.891824 47.9442
4.88118 0.878511 47.5846
4.80748 0.880582 47.5129
4.73396 0.882666 47.4411
4.65082 0.888855 47.2956
4.59311 0.861286 47.236
3.72195 0.84819 46.0682
3.65212 0.850287 45.9998
3.57807 0.843968 45.8351
3.51222 0.833629 45.7398
3.44317 0.835728 45.6724
3.23717 0.821361 45.3499
3.16206 0.827443 45.2175
3.10122 0.825554 45.2174
3.02673 0.831621 45.0856
2.95937 0.833706 45.0199
2.89217 0.835802 44.954
2.76589 0.81558 44.771
2.69934 0.817676 44.706
2.63294 0.819783 44.641
2.57067 0.809753 44.5503
2.50857 0.799763 44.4604
2.44282 0.80187 44.3961
2.37722 0.803989 44.3318
2.31743 0.802184 44.3304
2.18975 0.786286 44.09
2.12494 0.788415 44.0264
2.06033 0.790536 43.9631
1.99589 0.792667 43.8997
1.93663 0.790903 43.8977
1.74852 0.777334 43.5994
1.68505 0.779467 43.537
1.62174 0.781611 43.4745
1.55859 0.77577 43.3289
1.50445 0.762216 43.3029
1.44173 0.764361 43.2411
1.37917 0.766516 43.1793
1.13982 0.751634 42.8877
1.07819 0.753791 42.8268
1.01673 0.755959 42.7658
0.955454 0.758117 42.7051
0.724578 0.739677 42.4753
0.661053 0.74566 42.3588
0.603793 0.744045 42.3549
0.550363 0.726868 42.1956
0.493327 0.72526 42.1916
0.373967 0.729651 42.0726
0.0906841 0.713903 41.789
0.0342113 0.712351 41.7843
-0.0264323 0.718336 41.6714
-0.246703 0.700645 41.4498
-0.304412 0.702886 41.3916
-0.360319 0.701384 41.3864
-0.419319 0.707362 41.2755
-0.464641 0.683179 41.2296
-0.634192 0.686221 41.1087
-0.68968 0.684757 41.1031
-1.70966 0.675537 41.4836
-1.82175 0.665329 41.5744
-2.65652 0.672786 42.2286
-3.26983 0.671003 42.773
6.74962 0.85717 50.3978
6.58828 0.861526 50.2395
6.52184 0.859273 50.2452
6.31078 0.854594 49.6794
6.153 0.858929 49.5249
5.19522 0.823795 48.0994
5.10947 0.830238 47.95
5.02428 0.836652 47.8014
4.9551 0.81315 47.6653
4.88114 0.815321 47.5932
4.80743 0.817481 47.5215
4.51063 0.804945 47.1005
4.43818 0.807109 47.0299
4.36591 0.809286 46.9593
4.28472 0.815638 46.8168
4.20405 0.821962 46.6751
4.14756 0.794778 46.6176
4.06761 0.801115 46.4774
3.99674 0.803274 46.4083
3.92919 0.792955 46.3101
3.85876 0.795108 46.2413
3.79171 0.784813 46.1441
3.7217 0.786982 46.0759
3.50426 0.776981 45.6796
3.44288 0.775044 45.6799
3.36662 0.781319 45.5454
3.16172 0.767368 45.2248
3.10087 0.765468 45.2247
3.02637 0.771711 45.0928
2.95232 0.777927 44.9617
2.89921 0.751717 44.9086
2.83227 0.753893 44.8434
2.76549 0.75608 44.7781
2.70517 0.754223 44.7773
2.50815 0.740669 44.4672
2.44238 0.742857 44.403
2.37678 0.745056 44.3386
2.31138 0.747245 44.2745
2.05985 0.732081 43.9697
1.9954 0.734292 43.9062
1.93115 0.736493 43.843
1.8713 0.726813 43.7555
1.81169 0.717131 43.6686
1.748 0.719352 43.6058
1.68912 0.717605 43.6035
1.44118 0.706845 43.2473
1.37861 0.709078 43.1854
1.31624 0.711301 43.1238
1.07761 0.696812 42.8327
1.01614 0.699057 42.7717
0.954854 0.701292 42.711
0.898385 0.691912 42.6277
0.842136 0.68253 42.5451
0.781387 0.684785 42.4848
0.723964 0.683147 42.481
0.492697 0.669104 42.1972
0.373323 0.673645 42.0781
0.316452 0.672057 42.0738
0.0900234 0.658261 41.7943
0.0335495 0.656706 41.7896
-0.0271061 0.662843 41.6768
-0.0834155 0.661306 41.6719
-0.131463 0.640818 41.5716
-0.189513 0.643132 41.5132
-0.247384 0.645438 41.455
-0.3051 0.647753 41.3968
-0.579391 0.632915 41.1194
-0.634893 0.631442 41.1138
-0.690381 0.629977 41.1081
-0.74699 0.632319 41.0505
-0.803445 0.634672 40.9928
-1.82242 0.609649 41.5789
-2.65713 0.615989 42.2327
-3.27039 0.613294 42.7768
6.58861 0.794791 50.2495
6.49444 0.801611 50.086
6.43109 0.772738 50.0165
6.24524 0.786374 49.6944
5.58086 0.770004 48.6225
5.50457 0.772258 48.5481
5.42846 0.774526 48.4735
5.34131 0.781187 48.3215
5.27046 0.757632 48.1818
5.19524 0.759901 48.1083
4.95507 0.749843 47.674
4.8811 0.752103 47.6018
4.80737 0.754353 47.5301
4.73382 0.756616 47.4581
4.67039 0.754541 47.4605
4.51052 0.742373 47.1088
4.43806 0.744625 47.0382
4.36577 0.74689 46.9675
4.28752 0.740878 46.795
4.20984 0.734864 46.6242
4.13855 0.737107 46.5548
4.06742 0.739364 46.4854
3.93214 0.718975 46.289
3.86172 0.721229 46.2205
3.79147 0.723495 46.1519
3.71338 0.729985 46.0146
3.6516 0.728017 46.0153
3.50397 0.716285 45.6872
3.44259 0.714336 45.6875
3.36631 0.720791 45.5529
3.2905 0.727217 45.419
3.23652 0.700834 45.3646
3.16138 0.70727 45.2322
3.10052 0.705358 45.232
2.83189 0.694289 44.8505
2.7651 0.696558 44.7851
2.69852 0.698817 44.7201
2.63211 0.701087 44.6549
2.43612 0.687932 44.3467
2.37633 0.686101 44.3454
2.31093 0.68837 44.2813
2.24975 0.678705 44.192
2.19013 0.676894 44.1903
2.12399 0.671326 44.0397
2.05937 0.673606 43.9763
1.99491 0.675896 43.9128
1.81118 0.65905 43.675
1.74749 0.66135 43.6122
1.684 0.66364 43.5497
1.62067 0.665941 43.4871
1.37805 0.65162 43.1916
1.31567 0.653921 43.1299
1.25345 0.656233 43.0682
1.19981 0.642855 43.042
1.13866 0.637504 42.8996
1.07702 0.639815 42.8387
1.01554 0.642136 42.7777
0.838201 0.629892 42.4942
0.780774 0.628242 42.4906
0.720208 0.630563 42.4305
0.659799 0.632896 42.3703
0.602535 0.631271 42.3663
0.372677 0.617621 42.0837
0.315805 0.616029 42.0793
0.253973 0.622315 41.9649
0.197264 0.620741 41.9604
0.0893611 0.602601 41.7998
0.0328861 0.601043 41.795
-0.248067 0.590214 41.4602
-0.305789 0.592603 41.402
-0.361697 0.591095 41.3967
-0.691083 0.575181 41.1131
-0.747698 0.577597 41.0554
-0.804158 0.580022 40.9978
-0.859463 0.57858 40.9918
-0.914752 0.577146 40.9857
-0.964576 0.564488 40.9597
-1.0206 0.566934 40.9022
-1.82308 0.553955 41.5833
-1.9478 0.566664 41.7154
-2.65775 0.559179 42.2368
-2.90387 0.562386 42.4622
-4.15157 0.566273 43.4412
6.84377 0.742939 50.6611
6.40412 0.715614 49.8596
6.15345 0.727334 49.5443
5.90958 0.712812 49.1617
5.73029 0.726647 48.8501
5.65753 0.70305 48.7066
5.58096 0.705409 48.6318
5.50466 0.707755 48.5573
5.28161 0.689106 48.2675
5.19526 0.695979 48.1172
5.10947 0.702822 47.9677
4.88105 0.688858 47.6105
4.80731 0.691197 47.5387
4.73374 0.69355 47.4667
4.66317 0.683252 47.3635
4.59283 0.672993 47.2611
4.5104 0.679774 47.1172
4.44737 0.677703 47.1191
4.20967 0.672913 46.6323
4.13836 0.675244 46.5629
4.06722 0.677587 46.4935
3.85316 0.664152 46.1589
3.79123 0.662152 46.1598
3.7212 0.664493 46.0914
3.65133 0.666846 46.023
3.58062 0.648913 45.83
3.50368 0.655565 45.6948
3.44229 0.653604 45.695
3.16103 0.647149 45.2395
3.10017 0.645225 45.2393
3.02564 0.651822 45.1074
2.7647 0.637013 44.7922
2.69811 0.639353 44.7271
2.63169 0.641706 44.6619
2.5694 0.632041 44.5711
2.50729 0.622414 44.481
2.4415 0.624763 44.4166
2.37588 0.627124 44.3522
2.12351 0.61275 44.0463
2.05888 0.615109 43.9828
1.99441 0.617479 43.9193
1.93015 0.619839 43.8561
1.68347 0.605695 43.556
1.62013 0.608075 43.4934
1.55699 0.610445 43.431
1.50282 0.589377 43.3215
1.44008 0.591754 43.2597
1.37749 0.594143 43.1977
1.31914 0.592425 43.1948
1.13808 0.580411 42.9057
1.07643 0.582798 42.8447
1.01494 0.585197 42.7836
0.953647 0.587585 42.7228
0.722732 0.570032 42.4926
0.65917 0.576486 42.376
0.601903 0.574856 42.372
0.491431 0.556736 42.2085
0.434396 0.555122 42.2042
0.372029 0.561579 42.0893
0.315156 0.559983 42.0849
0.0886971 0.546924 41.8052
-0.0284583 0.551805 41.6875
-0.0847698 0.550261 41.6825
-0.30648 0.537436 41.4072
-0.362389 0.535926 41.4019
-0.421423 0.542354 41.291
-0.466711 0.518363 41.2449
-0.580795 0.523314 41.1295
-0.636298 0.521838 41.1238
-0.691787 0.520369 41.1181
-1.82375 0.498247 41.5878
-2.65836 0.502357 42.2408
-4.15205 0.507405 43.4446
7.5643 0.668029 52.219
7.39832 0.695256 51.6767
7.3001 0.675493 51.4219
7.2021 0.669414 51.2102
7.11935 0.671884 51.1283
7.03775 0.660945 51.0072
6.94063 0.668292 50.8388
6.58927 0.661227 50.2696
6.5228 0.65891 50.2752
6.40441 0.649364 49.8695
6.15368 0.661491 49.554
6.07684 0.650879 49.4407
6.0003 0.640306 49.3283
5.90975 0.64748 49.1712
5.84447 0.645238 49.1755
5.65765 0.638333 48.7159
5.58106 0.640784 48.641
5.50474 0.643224 48.5665
5.42859 0.645678 48.4918
5.19528 0.63203 48.1261
5.10947 0.639072 47.9765
5.03734 0.628801 47.8709
4.95501 0.623145 47.6914
4.88101 0.625586 47.6192
4.80725 0.628015 47.5473
4.59274 0.610175 47.2696
4.51029 0.617149 47.1256
4.4378 0.619577 47.0549
4.36548 0.622019 46.9841
4.20949 0.610937 46.6404
4.13817 0.613354 46.571
4.06702 0.615784 46.5015
3.9961 0.618202 46.4323
3.92853 0.608278 46.3339
3.86127 0.598347 46.2363
3.79099 0.600785 46.1676
3.72095 0.603211 46.0992
3.51108 0.590411 45.7702
3.44199 0.592847 45.7026
3.36568 0.599663 45.568
3.30442 0.597709 45.568
3.09982 0.585069 45.2466
3.02527 0.591842 45.1146
2.95786 0.594257 45.0488
2.89435 0.584637 44.9564
2.83111 0.575012 44.8647
2.7643 0.577445 44.7993
2.6977 0.579867 44.7342
2.50686 0.563254 44.4879
2.44106 0.565684 44.4235
2.37543 0.568125 44.359
2.31001 0.570556 44.2948
2.24474 0.572999 44.2305
2.05839 0.556591 43.9895
1.99391 0.559041 43.9259
1.92964 0.56148 43.8626
1.86553 0.563931 43.7992
1.81015 0.542825 43.6878
1.74644 0.545283 43.625
1.68294 0.547731 43.5624
1.61959 0.550189 43.4997
1.43952 0.534179 43.2659
1.37693 0.536646 43.2039
1.31454 0.539102 43.1422
1.2523 0.54157 43.0804
1.01435 0.528238 42.7896
0.95304 0.530703 42.7287
0.891893 0.533179 42.6678
0.838945 0.519995 42.6417
0.779542 0.515099 42.5022
0.722113 0.513446 42.4983
0.658538 0.520058 42.3818
0.371379 0.505519 42.0948
0.314505 0.503919 42.0904
0.252648 0.510514 41.9759
-0.0291369 0.49626 41.6928
-0.0854492 0.494713 41.6879
-0.143691 0.497232 41.6291
-0.196663 0.488475 41.5497
-0.249438 0.479715 41.4707
-0.307172 0.482253 41.4124
-0.363082 0.48074 41.4071
-0.5815 0.468489 41.1346
-0.637003 0.467011 41.1289
-0.692492 0.465541 41.1231
-0.750269 0.472128 41.0136
-0.805589 0.470675 41.0077
-0.860894 0.469231 41.0017
-0.971458 0.466366 40.9893
-1.94913 0.454794 41.7243
-2.65898 0.445522 42.2449
-2.90506 0.447975 42.4702
7.03819 0.593132 51.0176
6.75109 0.589253 50.4385
6.58959 0.594398 50.2797
6.06592 0.577019 49.3333
6.0005 0.574734 49.3379
5.90992 0.582118 49.1807
5.84462 0.579857 49.1849
5.58115 0.576131 48.6502
5.50482 0.578663 48.5756
5.42865 0.581211 48.5009
5.35732 0.558224 48.3594
5.28169 0.560777 48.2854
5.1953 0.568052 48.135
4.95498 0.559755 47.7001
4.88096 0.562286 47.6278
4.80719 0.564805 47.5559
4.73359 0.567337 47.4838
4.51017 0.554498 47.1339
4.43767 0.557014 47.0632
4.36534 0.559544 46.9924
4.29001 0.541829 46.7895
4.21834 0.544342 46.7198
4.13798 0.551439 46.5791
3.86104 0.536869 46.2441
3.79075 0.539392 46.1754
3.72069 0.541904 46.107
3.6508 0.544428 46.0385
3.44169 0.532067 45.7102
3.37281 0.534576 45.6429
3.2968 0.541562 45.5085
3.23553 0.519865 45.3868
3.16742 0.522371 45.3204
3.09947 0.524889 45.2539
2.83071 0.51534 44.8718
2.76389 0.517855 44.8064
2.69729 0.520359 44.7412
2.63084 0.522875 44.676
2.43478 0.510964 44.3673
2.37497 0.509105 44.3659
2.30954 0.511616 44.3016
2.24427 0.51414 44.2373
2.18872 0.500474 44.2104
2.12255 0.495533 44.0596
2.0579 0.498051 43.9961
1.99341 0.500582 43.9325
1.74592 0.487219 43.6314
1.6824 0.489746 43.5688
1.61905 0.492283 43.5061
1.37637 0.479129 43.2101
1.31396 0.481663 43.1484
1.25172 0.484208 43.0865
1.19036 0.479434 42.9438
1.13691 0.466165 42.9177
1.07525 0.468707 42.8566
1.01374 0.47126 42.7955
0.955928 0.469575 42.792
0.778923 0.4585 42.508
0.721493 0.456842 42.5041
0.657905 0.463611 42.3875
0.600635 0.461972 42.3835
0.313852 0.447838 42.096
0.251983 0.454587 41.9815
0.195271 0.453002 41.9769
0.0873643 0.435519 41.816
0.0308861 0.43395 41.8112
-0.0298169 0.440698 41.6982
-0.250125 0.424441 41.476
-0.307866 0.427053 41.4176
-0.363776 0.425538 41.4123
-0.422833 0.432266 41.3013
-0.693198 0.410696 41.1281
-0.750987 0.417432 41.0186
-0.806307 0.415978 41.0127
-0.861612 0.414533 41.0066
-1.02822 0.414328 40.9365
-1.08411 0.417001 40.8787
-1.9498 0.398839 41.7287
-2.90397 0.395037 42.4181
-4.66108 0.372175 43.8654
7.40062 0.530861 51.6159
7.10585 0.527713 51.0217
7.03862 0.525286 51.0281
6.94145 0.533082 50.8596
6.84717 0.514449 50.6141
5.91008 0.516726 49.1902
5.82008 0.524286 49.0338
5.75694 0.509191 49.0028
5.6698 0.503922 48.8132
5.58125 0.511449 48.6595
5.34604 0.498789 48.2912
5.28173 0.49657 48.2944
5.19531 0.504046 48.1439
5.10946 0.511488 47.9943
4.94447 0.501127 47.634
4.88091 0.498959 47.6365
4.80712 0.501567 47.5645
4.73351 0.50419 47.4924
4.65025 0.511547 47.3467
4.59254 0.48446 47.2864
4.51005 0.491819 47.1423
4.44699 0.489703 47.1441
4.20914 0.486908 46.6567
4.13779 0.489498 46.5872
4.06661 0.492102 46.5176
4.00426 0.490042 46.5187
3.7905 0.477975 46.1833
3.72043 0.480572 46.1148
3.65053 0.483182 46.0462
3.5764 0.478226 45.8811
3.51821 0.464053 45.8532
3.44139 0.471262 45.7178
3.37996 0.469272 45.7178
3.09911 0.464685 45.2613
3.02452 0.471813 45.1292
2.9638 0.469877 45.1287
2.76349 0.458242 44.8135
2.69687 0.460828 44.7483
2.63042 0.463426 44.683
2.56418 0.466012 44.618
2.50599 0.444867 44.5017
2.44017 0.447459 44.4372
2.37452 0.450063 44.3727
2.3147 0.448202 44.3711
2.12207 0.436893 44.0662
2.05741 0.439491 44.0027
1.99291 0.442101 43.9391
1.92862 0.4447 43.8757
1.68187 0.43174 43.5752
1.6185 0.434357 43.5124
1.55534 0.436963 43.45
1.49234 0.43958 43.3874
1.43841 0.418969 43.2783
1.3758 0.421592 43.2163
1.31339 0.424204 43.1545
1.07096 0.415961 42.805
1.01314 0.414263 42.8015
0.951823 0.416882 42.7406
0.89066 0.419513 42.6796
0.657269 0.407146 42.3933
0.599998 0.405502 42.3892
0.536929 0.41241 42.2731
0.479819 0.410785 42.2689
0.427597 0.397796 42.2428
0.370075 0.393346 42.106
0.313198 0.391738 42.1016
0.0302163 0.378218 41.8166
-0.0283763 0.380887 41.7576
-0.0868127 0.383566 41.6986
-0.145067 0.386234 41.6398
-0.42354 0.377197 41.3065
-0.479283 0.375698 41.301
-0.582912 0.358791 41.1447
-0.638416 0.35731 41.139
-0.751705 0.36272 41.0236
-2.90458 0.337882 42.4221
-3.09396 0.345373 42.6017
7.20434 0.451818 51.2016
6.84756 0.447138 50.6243
6.59024 0.460646 50.2999
6.40524 0.450429 49.8992
6.24809 0.443042 49.7064
6.15603 0.450891 49.547
6.00087 0.443501 49.357
5.91025 0.451305 49.1998
5.75908 0.431237 48.9771
5.66992 0.439005 48.8225
5.58134 0.446737 48.6688
5.50497 0.449456 48.5941
5.28176 0.432334 48.3034
5.19533 0.440011 48.1529
5.10945 0.447654 48.0032
5.05045 0.420355 47.9404
4.9549 0.432893 47.7176
4.88085 0.435604 47.6452
4.81725 0.433429 47.6476
4.59244 0.421562 47.2949
4.50992 0.429114 47.1507
4.4374 0.431808 47.0799
4.36504 0.434516 47.009
4.20896 0.424854 46.6649
4.14646 0.422758 46.6661
4.0664 0.430222 46.5257
3.99862 0.420671 46.4268
3.92785 0.423373 46.3578
3.86057 0.413836 46.2599
3.79025 0.416532 46.1911
3.72017 0.419215 46.1226
3.5795 0.405066 45.8606
3.51792 0.403042 45.8609
3.44108 0.410433 45.7254
3.37218 0.413111 45.658
3.30344 0.415802 45.5905
3.09875 0.404458 45.2686
3.02415 0.411764 45.1366
2.96341 0.409817 45.1359
2.89318 0.405181 44.978
2.83642 0.39132 44.9507
2.76308 0.398606 44.8206
2.69645 0.401274 44.7554
2.43972 0.388313 44.4441
2.37406 0.390998 44.3795
2.30861 0.393672 44.3152
2.24332 0.396357 44.2508
2.05691 0.380909 44.0093
1.99241 0.3836 43.9457
1.92811 0.386279 43.8823
1.86397 0.38897 43.8188
1.80913 0.375503 43.792
1.74486 0.37103 43.6443
1.68133 0.373714 43.5816
1.61796 0.37641 43.5188
1.4336 0.365788 43.2255
1.37523 0.364035 43.2225
1.31281 0.366726 43.1607
1.25055 0.369428 43.0988
1.19234 0.367704 43.0955
1.01254 0.357247 42.8075
0.954718 0.355551 42.8039
0.890041 0.362651 42.6855
0.83238 0.360975 42.6817
0.77768 0.345246 42.5197
0.720246 0.343579 42.5157
0.599359 0.349014 42.395
0.312542 0.335621 42.1071
0.193934 0.341088 41.9879
-0.029054 0.325212 41.763
-0.0874967 0.327967 41.7039
-0.145757 0.33071 41.6451
-0.203862 0.333464 41.5862
-0.251505 0.313843 41.4865
-0.309257 0.316603 41.4281
-0.365169 0.315083 41.4227
-0.639125 0.302435 41.144
-0.694615 0.300961 41.1382
-0.752425 0.307993 41.0286
-0.807745 0.306537 41.0226
-0.863051 0.305089 41.0165
-1.02887 0.300797 40.9976
-1.6586 0.296476 41.4172
-2.90685 0.276266 42.4821
-3.89594 0.269152 43.23
-5.38912 0.261467 44.4343
7.50194 0.385137 51.8111
7.20481 0.383703 51.2122
7.03949 0.389496 51.0491
6.75217 0.387983 50.4692
6.59056 0.393723 50.3101
6.33947 0.381671 49.9141
6.00106 0.37784 49.3667
5.91041 0.385854 49.2093
5.84508 0.383536 49.2134
5.67003 0.374059 48.8319
5.58143 0.381997 48.678
5.50504 0.384809 48.6033
5.42883 0.387637 48.5284
5.35747 0.36524 48.3865
5.28179 0.368071 48.3124
5.19534 0.375949 48.1619
4.96535 0.364418 47.8012
4.8808 0.372222 47.6539
4.80699 0.375011 47.5819
4.73334 0.377814 47.5096
4.5098 0.366383 47.1592
4.43726 0.369165 47.0883
4.36488 0.371962 47.0173
4.28953 0.355101 46.8142
4.21782 0.357876 46.7443
4.14627 0.360665 46.6743
3.86033 0.352283 46.2678
3.79 0.355065 46.199
3.71991 0.357834 46.1304
3.64998 0.360617 46.0618
3.44077 0.34958 45.733
3.37933 0.347567 45.7329
3.30311 0.355118 45.598
3.17348 0.336692 45.4088
3.09839 0.344208 45.276
3.03749 0.342238 45.2754
2.76267 0.338948 44.8277
2.70231 0.33702 44.8267
2.62956 0.344461 44.6971
2.3736 0.331912 44.3864
2.30814 0.334667 44.3221
2.24284 0.337433 44.2576
2.17643 0.333103 44.1063
2.12109 0.319548 44.0796
2.05642 0.322307 44.016
1.9919 0.325078 43.9523
1.93261 0.323249 43.95
1.74433 0.312904 43.6507
1.68079 0.315668 43.588
1.61741 0.318443 43.5252
1.55423 0.321207 43.4626
1.30817 0.313746 43.1082
1.24997 0.312008 43.105
1.18789 0.314777 43.0433
1.12598 0.317557 42.9816
1.07717 0.292932 42.9323
1.01193 0.300212 42.8135
0.95411 0.298511 42.8098
0.598719 0.292508 42.4007
0.541449 0.290865 42.3965
0.255011 0.27788 42.1081
0.193263 0.285105 41.9934
0.136554 0.283518 41.9886
0.0288722 0.266703 41.8274
-0.0297331 0.269521 41.7684
-0.0881821 0.272351 41.7093
-0.365867 0.259832 41.4279
-0.424958 0.26701 41.3169
-0.480702 0.265508 41.3113
-0.536434 0.264015 41.3056
-0.808466 0.251793 41.0276
-0.863772 0.250344 41.0215
-1.0312 0.254664 40.8997
-1.0863 0.253251 40.8933
-1.65929 0.241 41.4218
-4.15443 0.212915 43.4617
-4.47277 0.214706 43.6767
-5.65312 0.191837 44.6457
7.50249 0.316175 51.822
7.03992 0.321553 51.0596
6.94372 0.316999 50.8512
6.84833 0.31242 50.645
6.49938 0.309324 50.0809
6.43314 0.306903 50.086
6.24694 0.323552 49.763
6.00124 0.312149 49.3763
5.84523 0.318037 49.2229
5.75734 0.313571 49.0311
5.67014 0.309084 48.8412
5.58151 0.317227 48.6873
5.28182 0.303779 48.3214
5.19534 0.311859 48.1708
5.12028 0.314757 48.0973
4.88074 0.308813 47.6627
4.80691 0.311692 47.5905
4.73326 0.314586 47.5183
4.66262 0.30512 47.4146
4.59223 0.295687 47.3118
4.51933 0.298569 47.2406
4.44659 0.301465 47.1692
4.22668 0.29067 46.8237
4.14608 0.298546 46.6824
4.06598 0.306387 46.5419
4.00361 0.304287 46.5428
3.78975 0.293573 46.2069
3.71964 0.296428 46.1383
3.6497 0.299297 46.0696
3.57999 0.302153 46.0012
3.51734 0.280949 45.8762
3.4481 0.283807 45.8084
3.37901 0.286678 45.7405
3.10505 0.27909 45.3495
3.03712 0.281954 45.2827
2.96265 0.289627 45.1505
2.62912 0.284944 44.7041
2.56891 0.283028 44.7028
2.50467 0.267121 44.5225
2.43882 0.269957 44.4579
2.37314 0.272805 44.3933
2.30767 0.27564 44.3289
2.05592 0.263683 44.0226
1.99139 0.266535 43.9589
1.92707 0.269374 43.8954
1.86292 0.272225 43.8319
1.67561 0.262251 43.5343
1.61686 0.260456 43.5316
1.55367 0.263299 43.469
1.49064 0.266154 43.4063
1.43204 0.264389 43.4033
1.37409 0.248863 43.2349
1.31165 0.25171 43.173
1.24938 0.254569 43.1111
1.01133 0.243158 42.8195
0.9535 0.241452 42.8158
0.888797 0.248871 42.6974
0.831132 0.247186 42.6935
0.540806 0.234336 42.4022
0.477856 0.241726 42.286
0.420747 0.240098 42.2815
0.311226 0.223334 42.1183
0.254351 0.221724 42.1136
0.192591 0.229105 41.999
-0.0325521 0.218279 41.7198
-0.0888689 0.216718 41.7147
-0.147142 0.219611 41.6558
-0.205259 0.222516 41.5969
-0.481414 0.210389 41.3164
-0.537146 0.208894 41.3107
-0.592864 0.207407 41.3049
-0.696036 0.191161 41.1482
-0.753868 0.198491 41.0387
-0.809188 0.197033 41.0326
-0.865512 0.199962 40.975
-1.65999 0.185509 41.4264
-2.90804 0.161732 42.4901
-3.09573 0.172935 42.6135
-4.1549 0.153987 43.4651
-4.47321 0.155404 43.6799
-5.39831 0.153112 44.4637
-5.45648 0.152467 44.4471
7.30454 0.238618 51.4039
7.20575 0.247376 51.2335
6.84871 0.245013 50.6553
6.33999 0.248791 49.934
6.24717 0.257312 49.7729
6.15667 0.253072 49.5763
6.00143 0.246427 49.3859
5.67025 0.244079 48.8506
5.59346 0.24709 48.7754
5.51684 0.250117 48.7
5.20641 0.242461 48.2566
5.12027 0.250731 48.1063
5.04789 0.241339 47.9997
4.96527 0.237178 47.8188
4.88068 0.245376 47.6714
4.80684 0.248346 47.5992
4.5192 0.235681 47.249
4.44646 0.238667 47.1776
4.36457 0.246776 47.034
4.14589 0.236402 46.6906
4.07456 0.239353 46.6208
4.00339 0.242318 46.5509
3.92395 0.250324 46.411
3.85984 0.229101 46.2837
3.78949 0.232056 46.2148
3.71937 0.234998 46.1461
3.64942 0.237953 46.0774
3.44779 0.222809 45.816
3.3787 0.225766 45.7481
3.30244 0.23368 45.6131
3.24113 0.231666 45.6127
2.96226 0.229498 45.1578
2.9015 0.227528 45.1569
2.83143 0.223555 44.9987
2.77471 0.209792 44.9712
2.70147 0.217617 44.8409
2.62869 0.225406 44.7112
2.37267 0.213675 44.4002
2.31284 0.21178 44.3984
2.24187 0.219522 44.2712
2.17676 0.222438 44.207
1.99088 0.207971 43.9655
1.92655 0.21089 43.902
1.86239 0.213822 43.8384
1.79843 0.216741 43.7751
1.73894 0.208132 43.6876
1.67971 0.199515 43.6008
1.61631 0.202449 43.5379
1.55311 0.205371 43.4753
1.31514 0.189486 43.2379
1.24879 0.19711 43.1173
1.19057 0.195369 43.1139
1.12477 0.202972 42.9937
0.830506 0.190263 42.6994
0.772842 0.188581 42.6955
0.708826 0.196151 42.5775
0.54016 0.17779 42.4079
0.194369 0.168517 42.0594
0.135206 0.171494 41.9996
0.0785037 0.169909 41.9947
-0.149808 0.16856 41.6075
-0.205959 0.167016 41.6022
-0.262099 0.165481 41.5968
-0.321686 0.172963 41.4847
-0.367268 0.149279 41.4383
-0.537859 0.153757 41.3159
-0.754591 0.143716 41.0437
-0.809912 0.142257 41.0376
-0.86624 0.14526 40.9799
-1.03267 0.145422 40.9095
-1.08777 0.144008 40.903
-1.49392 0.143005 41.3485
-2.43212 0.127438 42.0881
-2.90863 0.104448 42.4941
-4.15537 0.0950491 43.4685
-4.47364 0.0960931 43.6832
7.30504 0.170177 51.4146
7.20622 0.179162 51.2441
7.04078 0.185569 51.0807
6.84909 0.177575 50.6657
6.59287 0.179978 50.3022
6.43371 0.173529 50.1059
6.34025 0.182305 49.9439
6.00161 0.180676 49.3956
5.84552 0.186949 49.242
5.60541 0.176701 48.8634
5.51691 0.185272 48.7093
5.43124 0.181356 48.522
5.36896 0.166588 48.4911
5.28188 0.17511 48.3395
5.20642 0.178205 48.2656
4.96523 0.173516 47.8276
4.89102 0.176588 47.755
4.81698 0.179675 47.6823
4.73308 0.188048 47.5356
4.50941 0.17803 47.1845
4.44632 0.175842 47.186
4.3738 0.178903 47.1149
4.30146 0.18198 47.0436
4.22633 0.165976 46.8401
4.15465 0.169026 46.77
4.08314 0.172091 46.6997
3.78923 0.170514 46.2227
3.7191 0.173542 46.154
3.64914 0.176584 46.0852
3.5794 0.179612 46.0167
3.37838 0.16483 45.7557
3.3095 0.167858 45.688
3.24079 0.170901 45.6203
3.16515 0.178973 45.4858
3.10767 0.165111 45.4578
3.03638 0.161316 45.2974
2.96866 0.164335 45.2309
2.70105 0.157881 44.848
2.64067 0.155933 44.8467
2.56803 0.16391 44.7169
2.5078 0.161984 44.7153
2.31237 0.15262 44.4052
2.24139 0.160533 44.278
2.1817 0.158652 44.276
2.11131 0.166542 44.1494
2.06016 0.1415 44.0975
1.99037 0.149386 43.9722
1.93107 0.147535 43.9698
1.86186 0.155398 43.845
1.61575 0.144422 43.5443
1.55699 0.142623 43.5414
1.4895 0.150437 43.419
1.18998 0.137886 43.12
1.13176 0.136148 43.1165
1.06611 0.143926 42.9962
1.00805 0.142209 42.9925
0.952275 0.127277 42.8277
0.894448 0.12557 42.8239
0.829878 0.133322 42.7054
0.772212 0.131636 42.7013
0.539514 0.121226 42.4137
0.482244 0.119579 42.4092
0.419428 0.127295 42.2929
0.191242 0.117051 42.01
0.13453 0.115455 42.0052
0.0755462 0.118496 41.9456
0.0167196 0.121549 41.8859
-0.0296299 0.0977248 41.8386
-0.0902467 0.105402 41.7254
-0.146555 0.103845 41.7202
-0.538573 0.0986033 41.321
-0.594292 0.0971144 41.3151
-0.810636 0.0874657 41.0426
-0.86697 0.0905429 40.9849
-1.0334 0.0907774 40.9144
-1.0885 0.0893642 40.9079
-1.66138 0.074485 41.4356
-1.89716 0.0733763 41.6566
-3.46607 0.0467052 42.9384
-3.64992 0.0461206 43.0394
-4.47408 0.0367725 43.6865
