0.345422 4.91307 41.086
0.289544 4.91207 41.0838
0.0697935 4.91236 41.1803
-0.664594 4.9354 41.3932
-0.72086 4.9343 41.389
-0.777115 4.9332 41.3848
-0.944689 4.93432 41.4792
-1.05738 4.93207 41.4697
-1.16946 4.93426 41.5681
-2.14474 4.95636 41.8363
-2.20135 4.95512 41.8292
-2.25793 4.95388 41.8219
-2.37364 4.95597 41.9175
-2.4303 4.95471 41.9099
-2.6163 4.98478 42.0415
-2.67306 4.9835 42.0334
3.94975 4.77028 39.7998
3.5959 4.79862 40.0716
3.54213 4.79789 40.0759
3.48834 4.79716 40.0801
3.38067 4.79568 40.0882
3.3268 4.79493 40.0921
3.2729 4.79418 40.0959
3.21898 4.79342 40.0995
3.16503 4.79266 40.1031
3.11106 4.79189 40.1065
3.05706 4.79112 40.1099
2.95991 4.79346 40.2168
2.84834 4.80494 40.2431
2.79089 4.81723 40.2662
2.73656 4.81644 40.269
2.68222 4.81565 40.2716
2.57846 4.81604 40.3273
2.47434 4.81641 40.3826
2.41976 4.81558 40.3846
2.36516 4.81475 40.3866
2.31055 4.81392 40.3885
1.60661 4.8374 40.6493
1.55147 4.8365 40.6497
1.44475 4.83674 40.702
1.33771 4.83695 40.7538
1.28237 4.83603 40.7536
1.06724 4.83637 40.856
0.34503 4.85931 41.0905
0.289149 4.85829 41.0883
0.0693999 4.85839 41.1847
-0.0426209 4.8563 41.1792
-0.0986241 4.85524 41.1762
-0.159541 4.86809 41.1943
-0.273729 4.88419 41.316
-0.329913 4.88312 41.3126
-0.442258 4.88098 41.3054
-0.665007 4.88092 41.3973
-0.721274 4.87982 41.3931
-0.777531 4.87871 41.3888
-0.945098 4.87966 41.4832
-1.80387 4.90378 41.7703
-1.91704 4.90135 41.7572
-2.14513 4.90087 41.8398
-2.20174 4.89963 41.8326
-2.25833 4.89838 41.8254
3.94958 4.71932 39.8061
3.48204 4.74379 40.0362
3.38045 4.74415 40.0942
3.32657 4.74338 40.098
3.21874 4.74183 40.1054
3.16479 4.74105 40.1089
3.11081 4.74027 40.1123
3.05681 4.73948 40.1157
2.47405 4.76421 40.3881
2.41946 4.76337 40.3901
2.36486 4.76252 40.3921
2.31024 4.76167 40.3939
2.20095 4.75996 40.3973
2.10042 4.76207 40.5024
2.04558 4.76119 40.5037
1.99073 4.76031 40.5049
1.93219 4.77271 40.5265
1.82235 4.77093 40.5283
1.71653 4.78639 40.6534
1.6614 4.78549 40.654
1.55111 4.78367 40.6548
1.44439 4.78381 40.707
1.33735 4.78392 40.7588
1.28201 4.78298 40.7586
1.22667 4.78204 40.7582
0.563155 4.80552 40.997
0.451673 4.80351 40.9934
0.28875 4.8045 41.0928
0.0671217 4.80238 41.1361
-0.0430223 4.80229 41.1835
-0.665422 4.82644 41.4014
-0.721692 4.82532 41.3972
-0.77795 4.82421 41.3929
-0.94551 4.82497 41.4872
-1.05821 4.82269 41.4776
-1.17056 4.82246 41.5217
-1.28879 4.83641 41.5868
-1.34523 4.83524 41.5813
-1.40735 4.84827 41.5973
-1.57715 4.84899 41.6891
-1.69019 4.84661 41.6769
-1.80427 4.84846 41.7739
-1.86087 4.84724 41.7674
-1.91745 4.84603 41.7608
-2.67039 4.86729 41.9288
4.0645 4.69875 39.9411
4.00262 4.66908 39.8073
3.94941 4.66834 39.8123
3.88306 4.66409 39.719
3.47572 4.69055 39.9923
3.38023 4.6926 40.1001
3.32634 4.69181 40.1039
2.79033 4.71332 40.2776
2.736 4.7125 40.2803
2.68164 4.71167 40.2828
2.57287 4.70999 40.2876
2.47375 4.71199 40.3936
2.41916 4.71114 40.3956
2.36455 4.71028 40.3975
2.30993 4.70941 40.3993
2.20063 4.70766 40.4027
1.44403 4.73086 40.712
1.28164 4.72992 40.7635
1.2263 4.72896 40.7632
1.06651 4.72985 40.8657
0.951198 4.74144 40.8849
0.89134 4.75401 40.9048
0.835752 4.75303 40.9036
0.780161 4.75204 40.9024
0.67424 4.75394 41.0048
0.562755 4.75193 41.0016
0.507012 4.75091 40.9999
0.451268 4.74989 40.998
-0.330749 4.77456 41.3211
-0.443102 4.77237 41.3139
-0.55542 4.77017 41.3062
-0.722112 4.77082 41.4013
-0.778372 4.76969 41.397
-0.945924 4.77028 41.4912
-1.69062 4.79144 41.6806
-1.91786 4.79068 41.7644
-2.14593 4.78984 41.8468
-2.20254 4.78859 41.8396
-2.38749 4.81787 41.9716
-2.44421 4.81661 41.9639
-2.6708 4.81152 41.9321
4.00245 4.6181 39.8136
3.94923 4.61733 39.8186
3.59529 4.6442 40.0899
3.47549 4.63916 39.9983
3.38 4.64103 40.1061
3.32611 4.64022 40.1099
3.21826 4.6386 40.1172
3.16429 4.63778 40.1206
3.1103 4.63695 40.124
3.05629 4.63612 40.1273
2.95059 4.6491 40.2039
2.84437 4.66218 40.2806
2.79005 4.66134 40.2833
2.73571 4.6605 40.2859
2.68135 4.65965 40.2884
2.57256 4.65794 40.2932
2.47345 4.65976 40.3991
2.41885 4.65889 40.4011
2.36424 4.65801 40.403
2.30961 4.65712 40.4048
1.6607 4.67985 40.6643
1.55039 4.67797 40.665
1.44366 4.6779 40.7171
1.28127 4.67684 40.7685
1.22592 4.67587 40.7681
1.06613 4.67657 40.8706
0.506606 4.69729 41.0045
0.45086 4.69626 41.0026
0.287944 4.69688 41.1019
0.0663071 4.69451 41.1449
-0.165734 4.71967 41.2284
-0.331171 4.72025 41.3254
-0.443528 4.71805 41.3181
-0.55585 4.71583 41.3104
-0.722536 4.71629 41.4054
-1.35176 4.73949 41.6106
-1.40822 4.73831 41.605
-1.578 4.73868 41.6966
-1.8051 4.73778 41.7812
3.47526 4.58775 40.0044
3.32587 4.58861 40.1159
3.21801 4.58695 40.1231
3.16404 4.58611 40.1265
3.11005 4.58526 40.1299
2.57226 4.60587 40.2988
2.47314 4.60751 40.4047
2.41854 4.60662 40.4066
2.36392 4.60572 40.4085
2.30929 4.60482 40.4103
2.19997 4.60301 40.4135
2.04097 4.61683 40.5402
1.92747 4.62818 40.5628
1.81756 4.62632 40.5645
1.66034 4.627 40.6695
1.44329 4.62492 40.7221
0.673443 4.64675 41.0143
0.561947 4.64469 41.011
0.506198 4.64365 41.0092
0.450449 4.64261 41.0072
0.285371 4.64125 41.0536
-0.556283 4.66147 41.3146
-0.722962 4.66176 41.4096
-0.779225 4.66061 41.4052
-0.946762 4.66084 41.4992
-1.05947 4.65851 41.4894
-1.18323 4.68425 41.522
-1.29572 4.68568 41.62
-1.35219 4.6845 41.6145
-1.40865 4.68331 41.6088
-1.57842 4.6835 41.7004
-2.38831 4.70631 41.9785
-2.44503 4.70504 41.9708
4.05529 4.51687 39.8212
3.47503 4.53632 40.0105
2.78947 4.55732 40.2947
2.73512 4.55644 40.2973
2.68075 4.55555 40.2998
2.57195 4.55377 40.3044
2.47283 4.55523 40.4102
2.41823 4.55433 40.4122
2.36361 4.55341 40.414
2.30897 4.5525 40.4157
1.44292 4.57192 40.7272
1.28052 4.57062 40.7785
1.05486 4.57999 40.7968
0.890143 4.59379 40.9193
0.834546 4.59277 40.9181
0.67304 4.59313 41.019
0.561538 4.59104 41.0157
0.505786 4.58999 41.0138
0.450034 4.58894 41.0119
-0.332025 4.61159 41.334
-0.556719 4.6071 41.3188
-0.723391 4.6072 41.4137
-0.779656 4.60605 41.4093
-0.835909 4.6049 41.4048
-1.46553 4.6271 41.6069
-1.57885 4.6283 41.7042
-1.80593 4.62705 41.7886
-1.91911 4.62458 41.7753
-1.97567 4.62334 41.7685
-2.03829 4.63635 41.7832
-2.21622 4.65057 41.8937
-2.44544 4.64923 41.9743
3.59464 4.4896 40.1083
3.47479 4.48486 40.0165
3.32538 4.48533 40.1279
3.2175 4.48359 40.135
3.16352 4.48271 40.1383
3.10652 4.49463 40.1618
3.05246 4.49376 40.165
2.94119 4.50482 40.1912
2.84351 4.50617 40.2978
2.78917 4.50528 40.3005
2.73482 4.50438 40.303
2.68044 4.50348 40.3055
2.57163 4.50166 40.31
1.92676 4.52287 40.5735
1.81683 4.52096 40.5751
1.65961 4.52125 40.6798
1.44255 4.5189 40.7323
0.669977 4.53784 40.9712
0.561125 4.53738 41.0204
0.505371 4.53632 41.0185
0.449616 4.53525 41.0165
0.284534 4.53367 41.0628
0.0554134 4.55992 41.2005
-0.167035 4.55721 41.2416
-0.333831 4.55555 41.2848
-1.29659 4.57566 41.6279
-1.35307 4.57446 41.6223
-1.40953 4.57326 41.6166
-1.46597 4.57206 41.6108
-1.80635 4.57166 41.7923
-2.44586 4.59342 41.9777
-2.67245 4.58829 41.9456
3.9352 4.4103 39.7457
3.59442 4.43803 40.1145
3.47454 4.43339 40.0227
3.32514 4.43365 40.1339
3.21724 4.43187 40.1409
2.68013 4.45138 40.3112
2.57131 4.44953 40.3157
2.41759 4.44969 40.4233
2.36296 4.44874 40.4251
2.30831 4.44779 40.4267
2.25365 4.44684 40.4283
2.19897 4.44588 40.4298
2.03994 4.45903 40.5563
1.9264 4.47019 40.5788
1.81646 4.46825 40.5804
1.65924 4.46834 40.6851
0.833725 4.48586 40.9278
0.669561 4.48426 40.976
0.449195 4.48155 41.0212
0.286292 4.48142 41.1201
-0.335651 4.49966 41.2357
-0.5576 4.49831 41.3273
-0.724258 4.49805 41.422
-0.780526 4.49689 41.4175
-0.836782 4.49572 41.413
-0.953504 4.5105 41.5328
-1.0718 4.52207 41.5443
-1.18457 4.51971 41.5339
-1.29703 4.52062 41.6318
-1.35351 4.51942 41.6262
-1.40997 4.51822 41.6205
-1.46642 4.51701 41.6147
-2.44627 4.53759 41.9812
3.935 4.35933 39.752
3.4743 4.3819 40.0288
2.9406 4.40107 40.2029
2.78857 4.40113 40.312
2.73421 4.4002 40.3145
2.67982 4.39926 40.3169
2.57099 4.39738 40.3214
2.41726 4.39734 40.4289
2.30798 4.39541 40.4323
1.81609 4.41552 40.5857
1.65886 4.41542 40.6903
1.54852 4.4134 40.6907
1.43814 4.41136 40.6907
1.27937 4.41117 40.7935
1.16032 4.43566 40.8339
1.04943 4.43359 40.8324
0.888916 4.43343 40.9339
0.833309 4.43237 40.9326
0.7777 4.43131 40.9312
0.666476 4.42918 40.9282
0.0526599 4.45023 41.1563
-0.167918 4.44882 41.2504
-0.3361 4.44543 41.24
-0.558045 4.44389 41.3315
-1.12865 4.46602 41.5432
-1.18503 4.46483 41.538
-1.29747 4.46558 41.6357
-1.35395 4.46437 41.6301
-1.41042 4.46316 41.6244
-1.46686 4.46195 41.6185
-1.5797 4.45952 41.6066
-1.6932 4.46019 41.7031
-1.80617 4.45772 41.6902
-2.0457 4.48415 41.8158
-2.21751 4.48361 41.9045
-2.44669 4.48175 41.9846
3.93479 4.30834 39.7584
3.59397 4.33481 40.1269
3.47405 4.33039 40.0349
3.32463 4.33025 40.146
3.21671 4.32839 40.1529
3.16272 4.32746 40.1562
3.10569 4.33924 40.1796
3.05161 4.33831 40.1827
2.94029 4.34917 40.2088
2.78826 4.34903 40.3178
2.73389 4.34808 40.3203
2.67951 4.34713 40.3226
2.6251 4.34617 40.3249
2.57067 4.34521 40.327
1.92567 4.36477 40.5896
1.8707 4.36377 40.5903
1.81571 4.36277 40.591
1.76072 4.36176 40.5916
1.65849 4.36248 40.6955
1.54814 4.36043 40.6959
1.43775 4.35837 40.6958
1.38254 4.35733 40.6956
0.777279 4.3778 40.9361
0.666049 4.37564 40.933
0.504106 4.3752 41.0326
0.448343 4.3741 41.0306
0.280743 4.38712 41.1504
0.168883 4.3849 41.1453
0.0522116 4.3962 41.1608
-0.168363 4.3946 41.2549
-0.336552 4.39118 41.2444
-1.07271 4.41233 41.5525
-1.1291 4.41114 41.5473
-1.18548 4.40994 41.542
-1.3544 4.4093 41.634
-1.41087 4.40809 41.6283
-1.46731 4.40687 41.6224
-1.58037 4.40591 41.6649
-2.44712 4.42589 41.9881
-2.6171 4.42204 41.964
-2.67371 4.42074 41.9557
4.06308 4.28885 39.9926
3.5812 4.2807 40.0332
3.4738 4.27885 40.0411
3.32437 4.27851 40.1521
2.78795 4.29691 40.3236
2.73358 4.29594 40.3261
2.67919 4.29497 40.3284
2.62477 4.294 40.3306
2.57034 4.29302 40.3327
2.4166 4.29259 40.4401
2.3073 4.2906 40.4434
2.24911 4.30252 40.4653
2.19439 4.30152 40.4666
2.03521 4.31406 40.5932
1.9253 4.31204 40.595
1.87032 4.31102 40.5957
1.81534 4.31 40.5964
1.76034 4.30898 40.5969
1.15949 4.32909 40.844
1.04859 4.32697 40.8423
0.888081 4.32643 40.9437
0.832468 4.32535 40.9424
0.776854 4.32426 40.941
0.665618 4.32209 40.9378
-0.168812 4.34037 41.2593
-0.337007 4.33692 41.2488
-0.558943 4.33501 41.3401
-0.848873 4.35937 41.468
-0.961473 4.357 41.4584
-1.07316 4.35744 41.5565
-1.12956 4.35624 41.5513
-1.18594 4.35504 41.546
-2.0466 4.37312 41.8232
-2.21838 4.37223 41.9116
-2.44754 4.37003 41.9916
3.93437 4.20628 39.7712
3.04798 4.24723 40.2148
2.93968 4.2453 40.2206
2.78764 4.24477 40.3295
2.67886 4.24279 40.3342
2.62444 4.2418 40.3364
2.57001 4.24081 40.3385
2.41627 4.24018 40.4457
1.92493 4.25928 40.6004
1.86995 4.25825 40.6011
1.81495 4.25722 40.6017
1.75995 4.25618 40.6022
1.54736 4.25444 40.7063
1.43696 4.25232 40.7061
1.38174 4.25125 40.7059
1.15907 4.27578 40.849
1.04817 4.27363 40.8473
0.832043 4.27181 40.9473
0.776425 4.27072 40.9458
0.720805 4.26962 40.9443
0.163222 4.29037 41.1756
0.0513057 4.2881 41.1699
-0.113183 4.28727 41.2671
-0.169264 4.28612 41.2638
-0.225339 4.28497 41.2604
-0.337465 4.28265 41.2532
-1.07362 4.30253 41.5606
-1.13002 4.30133 41.5554
-1.1864 4.30012 41.55
-1.3553 4.29913 41.6419
-1.41177 4.2979 41.6361
-1.46822 4.29668 41.6302
-1.58106 4.29421 41.6181
-1.81944 4.31985 41.7446
-1.87595 4.3186 41.7379
-1.99046 4.31884 41.8339
-2.04706 4.31758 41.8269
-2.21882 4.31653 41.9152
3.93415 4.15523 39.7777
3.58698 4.17874 40.0956
3.47328 4.17572 40.0534
3.41953 4.17475 40.0572
3.32384 4.17498 40.1642
3.21292 4.18562 40.1912
3.15888 4.18464 40.1945
3.10179 4.19628 40.2178
3.04767 4.1953 40.2208
2.93937 4.19333 40.2265
2.78732 4.1926 40.3353
2.67854 4.1906 40.3399
2.62411 4.18959 40.3421
2.13533 4.20834 40.4994
2.03448 4.20859 40.6041
1.92455 4.20651 40.6058
1.86956 4.20546 40.6065
1.81457 4.20441 40.6071
1.75956 4.20336 40.6076
1.04774 4.22027 40.8524
0.887232 4.21936 40.9536
0.831614 4.21826 40.9522
0.775994 4.21715 40.9507
0.720371 4.21604 40.9492
0.664746 4.21492 40.9475
0.502811 4.21392 41.0468
0.437853 4.23951 41.0865
0.27037 4.23614 41.0795
0.162769 4.23631 41.1802
0.0508482 4.23403 41.1745
-0.00510543 4.23288 41.1715
-0.113636 4.23301 41.2716
-0.169719 4.23185 41.2683
-0.225796 4.23069 41.2648
-0.849807 4.24991 41.4764
-0.962413 4.24752 41.4667
-1.07408 4.24761 41.5647
-1.13048 4.2464 41.5595
-1.18687 4.24518 41.5541
-1.35576 4.24402 41.6459
-1.41222 4.24279 41.6401
-1.46867 4.24156 41.6342
-2.04751 4.26203 41.8306
-2.21927 4.26081 41.9189
-2.44839 4.25826 41.9986
-2.63133 4.28273 42.0179
3.58045 4.12608 40.052
3.47302 4.12412 40.0597
3.41926 4.12313 40.0634
2.787 4.14042 40.3412
2.67821 4.13838 40.3457
2.62378 4.13735 40.3479
2.56933 4.13633 40.3499
2.41558 4.13531 40.457
2.30275 4.14605 40.4806
2.24804 4.145 40.482
2.18974 4.15679 40.5037
2.13496 4.15575 40.5049
2.0341 4.15583 40.6096
1.92417 4.15371 40.6112
1.86918 4.15265 40.6119
1.81418 4.15159 40.6125
1.75917 4.15052 40.6129
1.65695 4.15053 40.7166
1.26913 4.17129 40.8606
1.15823 4.1691 40.8592
1.10277 4.168 40.8584
1.04731 4.1669 40.8574
0.991844 4.1658 40.8563
0.886803 4.1658 40.9585
0.831182 4.16468 40.9571
0.775559 4.16357 40.9556
0.664306 4.16132 40.9523
0.0503876 4.17994 41.1791
-0.00556828 4.17878 41.1761
-0.114092 4.17874 41.2761
-0.170177 4.17757 41.2727
-0.226255 4.1764 41.2693
-0.282327 4.17523 41.2657
-0.33839 4.17405 41.262
-0.504138 4.17277 41.3571
-0.560312 4.17158 41.353
-0.62695 4.19758 41.3911
-0.737618 4.19756 41.49
-0.850278 4.19516 41.4806
-0.962887 4.19275 41.4709
-1.07455 4.19267 41.5688
-1.13095 4.19146 41.5635
-1.87689 4.20783 41.7454
-1.99137 4.20773 41.8414
-2.10454 4.20521 41.8271
4.04862 4.08145 39.9195
3.98686 4.05403 39.7859
3.9337 4.05304 39.7906
3.15529 4.09341 40.2268
3.10119 4.0924 40.2299
3.04706 4.09138 40.2328
2.93874 4.08934 40.2384
2.78668 4.08822 40.347
2.67787 4.08614 40.3516
2.62344 4.0851 40.3537
2.56899 4.08406 40.3557
2.51452 4.08301 40.3576
2.03373 4.10304 40.6151
1.92378 4.1009 40.6167
1.86879 4.09982 40.6173
1.81379 4.09875 40.6179
1.75877 4.09767 40.6183
1.64871 4.09549 40.6188
1.54617 4.09531 40.722
1.43174 4.10613 40.7423
1.37648 4.10503 40.742
1.26871 4.11794 40.8657
1.1578 4.11573 40.8643
1.10234 4.11462 40.8634
1.04688 4.11351 40.8625
0.991408 4.11239 40.8614
0.886371 4.11222 40.9635
0.492777 4.1329 41.0983
0.436941 4.13176 41.0961
0.269442 4.12833 41.0889
0.161854 4.12816 41.1895
0.105887 4.12699 41.1867
0.0499239 4.12583 41.1837
-0.00603416 4.12467 41.1807
-0.114551 4.12445 41.2806
-0.226718 4.1221 41.2737
-0.850752 4.14039 41.4848
-0.963363 4.13797 41.475
-1.07501 4.13772 41.5729
-1.13142 4.1365 41.5676
-1.1878 4.13527 41.5622
-1.24418 4.13404 41.5567
-1.35667 4.13376 41.6539
-1.47536 4.14508 41.6635
-1.59409 4.15641 41.6726
-1.70775 4.15619 41.7693
-1.82084 4.15368 41.756
-1.87736 4.15243 41.7493
-2.63223 4.17076 42.0249
4.12246 4.03384 40.0703
3.98663 4.00292 39.7924
3.93347 4.00192 39.7971
3.58623 4.02378 40.1145
3.52622 4.02188 40.0684
3.47248 4.02086 40.0721
3.41871 4.01983 40.0758
3.31416 4.03111 40.1527
3.21206 4.02996 40.2095
3.15499 4.04145 40.2329
3.10088 4.04042 40.236
3.04675 4.03939 40.2389
2.99259 4.03835 40.2417
2.93841 4.03732 40.2444
2.78635 4.03599 40.3529
2.67754 4.03389 40.3574
2.24376 4.05266 40.5137
2.18899 4.05159 40.5149
2.1342 4.05052 40.5161
2.02896 4.0493 40.5693
1.92339 4.04807 40.6222
1.8684 4.04698 40.6228
1.81339 4.04589 40.6233
1.75837 4.04479 40.6237
1.6483 4.04259 40.6242
1.10191 4.06123 40.8685
1.04644 4.0601 40.8675
0.990968 4.05897 40.8664
0.774679 4.05635 40.9655
0.719048 4.0552 40.9638
0.663415 4.05405 40.9621
0.496903 4.06575 41.0821
0.441095 4.0646 41.0799
0.380643 4.07671 41.0986
0.268974 4.07439 41.0936
0.161392 4.07405 41.1942
0.105422 4.07288 41.1913
0.0494572 4.07171 41.1883
-0.00650306 4.07053 41.1853
-0.115013 4.07015 41.2852
-0.515449 4.09079 41.4083
-0.571685 4.0896 41.4041
-0.627912 4.0884 41.3997
-0.738562 4.08803 41.4985
-0.851229 4.08561 41.4891
-0.963843 4.08317 41.4792
-1.07548 4.08276 41.5771
-1.13189 4.08153 41.5717
-1.18828 4.0803 41.5663
-1.24465 4.07906 41.5608
-1.82132 4.09827 41.7599
-1.87783 4.09701 41.7531
-1.99229 4.09658 41.8489
-2.04889 4.09531 41.8417
-2.10546 4.09404 41.8345
-2.46114 4.11754 41.9975
-2.57599 4.11605 42.0367
-2.63268 4.11476 42.0284
4.1153 3.98151 40.0271
3.57967 3.97127 40.0709
3.52595 3.97023 40.0747
3.47221 3.96919 40.0784
2.99227 3.98632 40.2477
2.93809 3.98527 40.2504
2.78602 3.98375 40.3588
2.6772 3.98161 40.3632
2.62275 3.98053 40.3653
2.56829 3.97946 40.3673
2.51381 3.97838 40.3691
2.40624 3.98971 40.4435
2.29815 4.00113 40.518
2.24338 4.00005 40.5193
2.18861 3.99897 40.5205
2.13381 3.99788 40.5216
2.02857 3.99656 40.5749
1.923 3.99522 40.6276
1.868 3.99411 40.6282
1.81299 3.993 40.6287
1.26785 4.01121 40.8761
1.15694 4.00895 40.8745
1.10147 4.00781 40.8736
1.046 4.00668 40.8726
0.990524 4.00554 40.8715
0.829866 4.00386 40.972
0.774234 4.00271 40.9704
0.7186 4.00155 40.9687
0.268503 4.02045 41.0983
0.160926 4.01993 41.1989
0.104955 4.01875 41.196
0.0489875 4.01757 41.193
-0.00697496 4.01639 41.1899
-0.115478 4.01583 41.2897
-0.227653 4.01344 41.2827
-0.28373 4.01224 41.2791
-0.344864 4.02446 41.2964
-0.45451 4.02391 41.3955
-0.51593 4.03619 41.4127
-0.572169 4.03499 41.4084
-0.628397 4.03378 41.4041
-0.739039 4.03325 41.5028
-0.851708 4.03081 41.4933
-0.964324 4.02836 41.4834
-1.13236 4.02654 41.5758
-1.48209 4.04842 41.6929
-1.59505 4.04592 41.6805
-1.82179 4.04284 41.7637
-1.87831 4.04158 41.7569
-1.99275 4.04098 41.8526
-2.63314 4.05874 42.0319
4.03932 3.90169 39.8008
3.98618 3.90065 39.8055
3.93301 3.8996 39.8101
3.04611 3.93534 40.251
2.99194 3.93427 40.2537
2.93776 3.9332 40.2564
2.88355 3.93212 40.2589
2.78569 3.93149 40.3647
2.67685 3.92931 40.3691
2.62241 3.92822 40.3711
2.56794 3.92713 40.3731
2.02379 3.943 40.5291
1.9226 3.94235 40.6331
1.8676 3.94123 40.6337
1.81259 3.94011 40.6341
1.75756 3.93898 40.6345
1.64747 3.93673 40.6349
1.53701 3.96184 40.7792
1.48573 3.9478 40.7584
1.42645 3.95958 40.7787
1.37115 3.95845 40.7783
1.26742 3.95781 40.8813
1.1565 3.95553 40.8797
1.10103 3.95438 40.8787
1.04556 3.95323 40.8777
0.435549 3.97001 41.1105
0.379707 3.96884 41.1081
0.268028 3.96648 41.1031
0.160458 3.96579 41.2035
0.104484 3.9646 41.2006
0.0485148 3.96341 41.1976
-0.00744987 3.96222 41.1945
-0.115945 3.96149 41.2943
-0.85219 3.97599 41.4976
-0.964809 3.97353 41.4876
-1.13284 3.97154 41.58
-1.18923 3.9703 41.5745
-1.36954 3.99565 41.709
-1.48258 3.99316 41.6969
-1.59554 3.99066 41.6845
-1.82227 3.9874 41.7676
-1.87879 3.98613 41.7607
-2.46207 4.00567 42.0047
-2.57691 4.00401 42.0438
-2.6336 4.00272 42.0354
3.57914 3.86796 40.0835
3.52261 3.87922 40.1074
3.46883 3.87815 40.111
3.41501 3.87708 40.1146
3.3044 3.88729 40.1414
3.15406 3.88546 40.2513
3.04579 3.88329 40.2571
2.99162 3.8822 40.2598
2.93742 3.88111 40.2624
2.88321 3.88002 40.2649
2.78535 3.8792 40.3707
2.29739 3.89588 40.5294
2.24262 3.89476 40.5307
2.18783 3.89365 40.5318
2.13303 3.89253 40.5329
2.02339 3.89029 40.5347
1.92221 3.88946 40.6386
1.8672 3.88832 40.6392
1.81218 3.88719 40.6396
1.75715 3.88605 40.6399
1.15606 3.90209 40.8848
1.10059 3.90093 40.8839
1.04511 3.89977 40.8828
0.989627 3.8986 40.8816
0.773335 3.89539 40.9803
0.713251 3.9073 40.9994
0.490925 3.91724 41.1176
0.435079 3.91606 41.1153
0.379234 3.91487 41.113
0.159987 3.91164 41.2082
0.104011 3.91044 41.2053
0.048039 3.90924 41.2023
-0.516902 3.92695 41.4215
-0.573144 3.92573 41.4172
-0.629375 3.92451 41.4128
-0.739999 3.92363 41.5114
-0.852674 3.92117 41.5018
-0.965296 3.91869 41.4919
-1.59603 3.93537 41.6885
-1.82275 3.93194 41.7714
-1.87927 3.93067 41.7646
-2.05028 3.92846 41.853
-2.11301 3.94102 41.8672
-2.46253 3.94971 42.0083
-2.57737 3.94797 42.0474
-2.63246 3.94584 41.9836
3.04546 3.83121 40.2632
2.99128 3.83011 40.2658
2.93709 3.829 40.2684
2.88287 3.82789 40.2709
2.78501 3.8269 40.3766
2.67615 3.82465 40.3809
2.6217 3.82353 40.3828
2.56722 3.8224 40.3847
2.50935 3.83384 40.4068
2.40025 3.83159 40.41
2.29701 3.84322 40.5351
2.24223 3.84209 40.5364
2.18744 3.84096 40.5375
2.13263 3.83983 40.5385
2.02298 3.83755 40.5403
1.9218 3.83655 40.6442
1.42557 3.85312 40.7893
1.37027 3.85196 40.7888
1.25965 3.84964 40.7876
1.15562 3.84863 40.89
1.10014 3.84746 40.889
1.04466 3.84629 40.8879
0.878193 3.84276 40.884
0.434606 3.86209 41.1202
0.378758 3.86089 41.1178
0.159513 3.85747 41.213
0.103534 3.85626 41.21
0.0475603 3.85505 41.2069
-0.00840861 3.85384 41.2038
-0.11689 3.85277 41.3034
-0.234105 3.86365 41.3174
-0.295275 3.87575 41.3348
-0.351409 3.87454 41.3309
-0.517392 3.8723 41.4259
-0.573635 3.87107 41.4216
-0.629868 3.86985 41.4172
-0.853161 3.86632 41.5061
-1.37051 3.88511 41.7171
-1.48356 3.8826 41.705
-1.54005 3.88134 41.6988
-1.59652 3.88008 41.6924
-1.82323 3.87647 41.7753
-1.87975 3.8752 41.7684
-2.46164 3.89298 41.9565
-2.57783 3.89192 42.0509
-2.63293 3.88987 41.9871
4.04045 3.77288 39.9098
3.98547 3.74706 39.8253
3.93228 3.74596 39.8298
3.30377 3.78358 40.1539
3.15342 3.78135 40.2636
3.04513 3.77911 40.2693
2.99095 3.77799 40.2719
2.93675 3.77687 40.2745
2.88252 3.77574 40.2769
2.77934 3.77402 40.3321
2.6758 3.77229 40.3868
2.18704 3.78825 40.5432
2.13223 3.7871 40.5442
2.02257 3.7848 40.5458
1.9214 3.78362 40.6497
1.86638 3.78246 40.6502
1.81135 3.78129 40.6505
1.75632 3.78013 40.6508
1.63843 3.80331 40.6919
1.53572 3.80219 40.7953
1.48043 3.80102 40.795
1.42513 3.79985 40.7946
1.36983 3.79868 40.7941
1.2592 3.79634 40.7928
0.489981 3.8093 41.1274
0.378279 3.8069 41.1226
0.159035 3.80328 41.2177
0.103055 3.80206 41.2147
0.0470786 3.80085 41.2116
-0.00889242 3.79963 41.2084
-0.517884 3.81764 41.4304
-0.57413 3.8164 41.426
-0.630364 3.81517 41.4216
-0.853651 3.81146 41.5104
-0.966278 3.80897 41.5003
-1.02805 3.82119 41.5163
-1.14546 3.83351 41.6352
-1.20191 3.83226 41.6296
-1.371 3.82982 41.7212
-1.48405 3.8273 41.709
-2.34884 3.83966 41.9762
-2.46211 3.83708 41.9601
-2.57829 3.83585 42.0545
-2.63498 3.83455 42.0461
3.5783 3.71282 40.1027
3.52175 3.72394 40.1265
3.46795 3.72281 40.13
3.41412 3.72168 40.1335
3.30345 3.7317 40.1602
3.1531 3.72927 40.2698
3.0448 3.727 40.2754
2.99061 3.72586 40.278
2.9364 3.72471 40.2806
2.88217 3.72357 40.283
2.78431 3.72222 40.3886
2.39602 3.73915 40.4419
2.24144 3.73668 40.5478
2.18664 3.73552 40.5489
2.13183 3.73436 40.5498
2.02216 3.73203 40.5515
1.86597 3.72949 40.6557
1.81094 3.72832 40.656
1.42469 3.74657 40.8
1.36938 3.74539 40.7994
1.25874 3.74302 40.7981
1.15472 3.74166 40.9004
1.09924 3.74047 40.8993
1.04375 3.73927 40.8982
0.988258 3.73807 40.8969
0.877265 3.73567 40.8941
0.767528 3.74726 41.0161
0.707385 3.75905 41.0352
0.651675 3.75785 41.0332
0.489504 3.75531 41.1323
0.377798 3.75288 41.1275
0.321947 3.75167 41.1249
-0.51838 3.76296 41.4348
-0.574627 3.76172 41.4305
-0.630863 3.76048 41.426
-0.7433 3.75799 41.4168
-1.48454 3.77198 41.7131
-1.59752 3.76945 41.7004
-1.76766 3.76677 41.7899
-1.8242 3.76549 41.7831
-1.88072 3.76421 41.7761
-1.9951 3.76278 41.8715
-2.0517 3.76149 41.8643
-2.12064 3.78768 41.9002
-2.17724 3.7864 41.8926
-2.23382 3.78512 41.885
-2.46259 3.78117 41.9638
-2.57875 3.77977 42.0581
3.15277 3.67717 40.276
3.04446 3.67486 40.2815
2.99027 3.6737 40.2841
2.93606 3.67254 40.2866
2.88182 3.67138 40.289
2.77863 3.66945 40.344
2.67508 3.66751 40.3986
2.61727 3.6788 40.4209
2.56275 3.67763 40.4226
2.50481 3.68894 40.4446
2.39563 3.68661 40.4477
2.24105 3.68395 40.5535
2.18624 3.68277 40.5546
2.13142 3.6816 40.5555
1.47955 3.69446 40.8057
1.42424 3.69327 40.8053
1.36893 3.69208 40.8048
1.25828 3.68968 40.8034
1.09878 3.68695 40.9045
1.04329 3.68574 40.9033
0.595479 3.7028 41.0362
0.489024 3.7013 41.1372
0.377313 3.69885 41.1323
0.32146 3.69763 41.1297
0.26561 3.6964 41.127
0.102087 3.69362 41.2241
0.0461063 3.69238 41.221
-0.0147543 3.7043 41.2387
-0.240627 3.71351 41.3523
-0.296775 3.71227 41.3484
-0.352914 3.71103 41.3445
-0.518878 3.70827 41.4393
-0.575126 3.70702 41.4349
-0.631364 3.70577 41.4304
-1.25936 3.72072 41.6323
-1.37199 3.71919 41.7294
-1.48504 3.71665 41.7171
-2.3498 3.72782 41.9835
-2.46307 3.72524 41.9674
-2.57922 3.72368 42.0617
-2.63434 3.72187 41.9978
4.03972 3.61876 39.9298
3.98473 3.59328 39.8452
3.93152 3.59211 39.8496
3.30281 3.62786 40.1728
3.14667 3.6247 40.232
3.04412 3.6227 40.2877
2.98992 3.62152 40.2903
2.9357 3.62035 40.2927
2.88147 3.61917 40.2951
2.77293 3.61681 40.2995
2.24064 3.6312 40.5593
2.18584 3.63001 40.5603
2.13101 3.62881 40.5612
2.07618 3.62762 40.562
2.02133 3.62642 40.5627
1.86513 3.62351 40.6668
1.81009 3.62231 40.6671
1.7512 3.63375 40.6878
1.6371 3.64402 40.7083
1.4791 3.64116 40.8111
1.42379 3.63995 40.8107
1.36847 3.63874 40.8101
1.25782 3.63632 40.8086
1.09832 3.6334 40.9097
1.04283 3.63218 40.9085
0.706422 3.65139 41.0452
0.650707 3.65017 41.0432
0.594991 3.64895 41.0412
0.488541 3.64727 41.1421
0.376825 3.6448 41.1372
0.320969 3.64357 41.1346
0.265117 3.64234 41.1318
0.101598 3.63937 41.2289
-0.29728 3.65775 41.353
-0.353422 3.6565 41.3491
-0.519379 3.65355 41.4438
-0.631868 3.65104 41.4349
-0.744311 3.64853 41.4255
-0.860549 3.66015 41.5446
-0.916903 3.65889 41.5395
-0.973243 3.65763 41.5343
-1.03507 3.66975 41.5503
-1.14697 3.66808 41.6478
-1.20343 3.66681 41.6422
-1.25987 3.66555 41.6364
-1.37269 3.66301 41.6246
-1.48554 3.66131 41.7212
-2.12163 3.67616 41.9078
-2.23481 3.67359 41.8925
-2.35028 3.67189 41.9872
-2.46355 3.6693 41.9711
-2.57968 3.66757 42.0652
4.11355 3.56928 40.0807
3.57465 3.56963 40.1422
3.52086 3.56845 40.1457
3.46704 3.56727 40.1492
3.41319 3.56609 40.1525
3.35641 3.57708 40.176
3.30248 3.57591 40.1791
3.24853 3.57473 40.1822
3.14633 3.57263 40.2382
3.04377 3.57051 40.2939
2.98957 3.56932 40.2964
2.93535 3.56813 40.2988
2.88111 3.56694 40.3012
2.50403 3.58386 40.4564
2.39483 3.58147 40.4594
2.24024 3.57842 40.565
2.1306 3.57601 40.5669
2.07576 3.5748 40.5677
2.02091 3.57359 40.5684
1.86471 3.57049 40.6723
1.47865 3.58783 40.8165
1.42334 3.58661 40.816
1.36802 3.58539 40.8154
1.25736 3.58295 40.8139
0.986859 3.57738 40.9123
0.871493 3.58775 40.93
0.761653 3.59877 41.0522
0.705936 3.59754 41.0503
0.650218 3.59631 41.0483
0.594499 3.59507 41.0462
0.488055 3.59322 41.1471
0.376334 3.59074 41.1421
-0.132717 3.60629 41.2621
-0.241637 3.60446 41.3615
-0.297789 3.60321 41.3576
-0.353932 3.60195 41.3536
-0.519882 3.59883 41.4482
-0.632374 3.5963 41.4393
-0.74482 3.59378 41.4299
-1.20394 3.61164 41.6464
-1.26038 3.61037 41.6406
-1.3732 3.60782 41.6288
-1.48604 3.60595 41.7252
-1.54254 3.60467 41.7189
-1.59902 3.60339 41.7125
-1.77511 3.61377 41.8232
-1.83168 3.61249 41.8163
-1.89426 3.62478 41.8308
-2.00884 3.62295 41.9265
-2.12212 3.62038 41.9116
-2.23531 3.6178 41.8963
-2.35076 3.61594 41.9909
3.14599 3.52053 40.2445
3.04342 3.51831 40.3
2.98922 3.5171 40.3026
2.93499 3.51589 40.305
2.88074 3.51468 40.3073
2.77219 3.51226 40.3116
2.61613 3.52133 40.4387
2.50364 3.53128 40.4624
2.39442 3.52886 40.4652
2.23983 3.52563 40.5708
2.13018 3.52319 40.5726
1.47819 3.53449 40.8219
1.42288 3.53326 40.8214
1.36756 3.53202 40.8208
1.31223 3.53079 40.8201
0.594004 3.54118 41.0512
0.487565 3.53916 41.152
0.375839 3.53666 41.147
0.31998 3.5354 41.1443
0.264122 3.53415 41.1415
0.100613 3.53082 41.2384
0.0397492 3.54262 41.2562
-0.0211691 3.55442 41.2738
-0.133234 3.55191 41.2668
-0.242146 3.54991 41.3661
-0.2983 3.54865 41.3622
-0.354445 3.54739 41.3582
-0.520388 3.54409 41.4527
-1.03611 3.55972 41.5589
-1.14799 3.55772 41.6563
-1.20445 3.55644 41.6506
-1.26089 3.55517 41.6448
-1.37372 3.55261 41.6329
-1.48655 3.55057 41.7293
-1.54305 3.54929 41.723
-1.59952 3.54801 41.7165
-2.12262 3.56458 41.9154
-2.23581 3.562 41.9001
-2.35125 3.55997 41.9947
-2.4079 3.55868 41.9866
-2.46452 3.55738 41.9784
-2.58062 3.55533 42.0725
-2.64383 3.56779 42.0857
4.03895 3.46444 39.9501
3.92815 3.44999 39.8894
3.40967 3.47436 40.1855
3.35575 3.47315 40.1887
3.30182 3.47194 40.1918
3.24785 3.47072 40.1948
3.13986 3.46829 40.2005
3.04307 3.46608 40.3063
2.98886 3.46486 40.3087
2.93463 3.46363 40.3111
2.88038 3.46241 40.3134
2.39401 3.47624 40.4711
2.23942 3.47282 40.5766
2.12976 3.47034 40.5784
2.07492 3.46911 40.5791
2.02005 3.46787 40.5797
1.86005 3.47694 40.7041
1.74601 3.48702 40.7249
1.69088 3.48578 40.7249
1.63574 3.48455 40.7248
1.47774 3.48112 40.8274
1.36709 3.47864 40.8262
0.866152 3.4932 40.9609
0.760677 3.49103 41.0623
0.704954 3.48978 41.0604
0.64923 3.48853 41.0583
0.593507 3.48727 41.0562
0.487073 3.48508 41.157
0.375342 3.48256 41.1519
0.31948 3.48129 41.1492
0.263621 3.48003 41.1464
-0.242658 3.49534 41.3708
-0.298813 3.49407 41.3668
-0.35496 3.4928 41.3628
-0.411098 3.49154 41.3587
-0.520897 3.48933 41.4572
-0.633395 3.48678 41.4482
-0.751176 3.49744 41.4598
-0.867518 3.50851 41.579
-0.923905 3.50723 41.5738
-0.980278 3.50596 41.5686
-1.03664 3.50469 41.5632
-1.14851 3.50251 41.6605
-1.26141 3.49995 41.649
-1.83871 3.5148 41.8458
-1.89529 3.51351 41.8387
-2.00984 3.51135 41.9342
-2.12312 3.50877 41.9193
-2.23631 3.50619 41.9039
-2.35174 3.50399 41.9984
4.10587 3.41427 40.0514
3.57375 3.414 40.1616
3.5171 3.42484 40.1853
3.46323 3.42361 40.1887
3.40934 3.42238 40.1919
3.35542 3.42115 40.1951
3.30148 3.41992 40.1982
3.24751 3.41869 40.2011
3.1395 3.41622 40.2067
2.9885 3.4126 40.3149
2.93426 3.41135 40.3173
2.50283 3.42608 40.4743
2.3936 3.4236 40.477
2.239 3.41998 40.5824
2.12934 3.41748 40.5841
2.07449 3.41623 40.5848
2.01962 3.41498 40.5854
1.47728 3.42774 40.8328
1.36662 3.42523 40.8315
1.31129 3.42397 40.8308
1.25182 3.43538 40.8504
1.09219 3.43177 40.9513
1.03666 3.43051 40.95
0.981118 3.42925 40.9486
0.865655 3.43947 40.9661
0.704458 3.43587 41.0655
0.648732 3.43461 41.0634
0.593006 3.43335 41.0612
0.484066 3.4309 41.1092
-0.0222028 3.44564 41.2833
-0.134276 3.4431 41.2762
-0.243173 3.44076 41.3754
-0.29933 3.43948 41.3715
-0.355478 3.43821 41.3674
-0.411618 3.43693 41.3633
-0.521408 3.43455 41.4618
-1.03716 3.44964 41.5675
-1.14902 3.44729 41.6648
-1.26192 3.44473 41.6532
-1.37476 3.44215 41.6412
-1.54406 3.43849 41.7311
-1.6064 3.45061 41.746
-1.78262 3.46043 41.8567
-1.8958 3.45786 41.8426
-2.01034 3.45553 41.9381
-2.12363 3.45295 41.9231
-2.23682 3.45036 41.9077
-2.64974 3.46896 42.0592
4.09865 3.36266 40.0086
4.04528 3.36141 40.013
3.30113 3.36788 40.2045
3.24716 3.36663 40.2075
3.13915 3.36413 40.213
2.98814 3.36031 40.3211
2.87963 3.35779 40.3257
2.76779 3.36749 40.35
2.6116 3.37595 40.4771
2.50242 3.37344 40.4802
2.44781 3.37219 40.4816
2.39319 3.37093 40.4829
2.33854 3.36967 40.4841
2.23858 3.36713 40.5882
2.12891 3.3646 40.5899
1.74511 3.38066 40.7361
1.68997 3.3794 40.736
1.63482 3.37813 40.7359
1.47681 3.37434 40.8382
1.36615 3.3718 40.8369
1.25547 3.36926 40.8352
1.09597 3.36542 40.9358
1.04046 3.36414 40.9345
0.70396 3.38195 41.0706
0.648231 3.38068 41.0685
0.592502 3.3794 41.0663
0.481045 3.37685 41.0615
0.374339 3.3743 41.1617
0.318472 3.37302 41.159
0.262608 3.37174 41.1561
0.206748 3.37046 41.1532
0.0942447 3.38083 41.2738
-0.0227239 3.39122 41.2881
-0.134801 3.38867 41.281
-0.299849 3.38487 41.3761
-0.355999 3.38359 41.372
-0.924957 3.39714 41.5826
-0.981332 3.39585 41.5772
-1.03769 3.39457 41.5718
-1.14954 3.39206 41.6691
-1.26245 3.38948 41.6574
-1.37528 3.3869 41.6454
-1.89632 3.40219 41.8466
-2.01084 3.3997 41.942
-2.12413 3.39711 41.927
-2.18074 3.39582 41.9193
-2.23732 3.39452 41.9115
-2.35272 3.392 42.0059
-2.41574 3.4043 42.0194
-2.47239 3.403 42.0111
-2.59508 3.41416 42.1271
-2.65024 3.4128 42.0629
4.09839 3.31108 40.0154
4.04501 3.30981 40.0198
3.98315 3.28508 39.8854
3.92991 3.2838 39.8896
3.40867 3.31835 40.2048
3.35474 3.31708 40.2079
3.30079 3.31582 40.2109
3.24681 3.31455 40.2138
3.13879 3.31201 40.2193
2.98777 3.30801 40.3273
2.87926 3.30545 40.3318
2.33812 3.31697 40.49
2.23816 3.31425 40.5941
2.12848 3.31169 40.5957
2.07362 3.31042 40.5963
2.01875 3.30914 40.5968
1.96386 3.30786 40.5973
1.85872 3.31754 40.721
1.74465 3.32745 40.7417
1.6895 3.32617 40.7416
1.63435 3.3249 40.7414
1.57919 3.32362 40.7411
1.47634 3.32092 40.8437
0.86465 3.33197 40.9765
0.703458 3.328 41.0757
0.647727 3.32672 41.0735
0.591995 3.32544 41.0713
0.480533 3.32287 41.0665
0.373833 3.32015 41.1667
-0.135329 3.33422 41.2857
-0.300371 3.33025 41.3808
-0.356523 3.32896 41.3767
-0.412665 3.32767 41.3725
-0.524921 3.32509 41.3637
-0.634945 3.32237 41.4616
-0.758109 3.346 41.4943
-0.925486 3.34206 41.5869
-0.981862 3.34078 41.5816
-1.03822 3.33949 41.5762
-1.15006 3.33681 41.6733
-1.78366 3.34909 41.8648
-1.89684 3.34651 41.8506
-2.01135 3.34385 41.9459
-2.12464 3.34126 41.9308
-2.18125 3.33996 41.9231
-2.23783 3.33867 41.9153
3.62382 3.27142 40.198
3.56999 3.27014 40.2015
3.51613 3.26886 40.2048
3.40834 3.2663 40.2113
3.3544 3.26502 40.2144
3.30044 3.26373 40.2174
3.24646 3.26245 40.2202
3.13842 3.25988 40.2257
2.61079 3.27068 40.4892
2.5016 3.26811 40.4922
2.44698 3.26683 40.4935
2.39234 3.26554 40.4948
2.33769 3.26425 40.4959
2.23773 3.26136 40.5999
2.12805 3.25877 40.6014
1.68904 3.27293 40.7472
1.63388 3.27165 40.747
1.57871 3.27036 40.7466
1.47587 3.26748 40.8492
1.03089 3.28205 40.9865
0.975311 3.28077 40.985
0.864143 3.27819 40.9817
0.702953 3.27404 41.0808
0.647219 3.27275 41.0786
0.591485 3.27146 41.0764
0.0883348 3.28493 41.3045
-0.0237744 3.28234 41.2977
-0.135859 3.27976 41.2904
-0.300895 3.27561 41.3854
-0.357049 3.27431 41.3813
-0.413193 3.27302 41.3771
-0.926017 3.28698 41.5913
-0.982394 3.28568 41.586
-1.03876 3.28439 41.5805
-1.15059 3.28155 41.6776
-1.26349 3.27895 41.6659
-1.37633 3.27636 41.6538
-1.55732 3.29879 41.7863
-1.61386 3.2975 41.7797
-1.78418 3.2934 41.8688
-1.89736 3.29081 41.8545
-2.01186 3.28799 41.9498
-2.47981 3.30441 42.0403
-2.65124 3.30044 42.0702
4.09786 3.20784 40.0291
4.03074 3.20701 39.9346
3.35405 3.21293 40.2208
3.30009 3.21163 40.2238
3.2461 3.21033 40.2266
3.13805 3.20772 40.232
2.98703 3.20333 40.3398
2.87849 3.20071 40.3442
2.82096 3.21152 40.3664
2.76661 3.21022 40.3684
2.71224 3.20892 40.3702
2.61038 3.21802 40.4953
2.50118 3.21542 40.4982
2.44656 3.21411 40.4995
2.39192 3.21281 40.5007
2.33726 3.21151 40.5018
2.2373 3.20844 40.6058
1.84554 3.22399 40.6499
1.74372 3.22097 40.753
1.68857 3.21967 40.7528
1.63341 3.21837 40.7525
1.57824 3.21707 40.7522
1.4754 3.21402 40.8547
0.863633 3.22439 40.9869
0.702446 3.22006 41.0859
0.646709 3.21876 41.0837
0.590972 3.21746 41.0814
0.479501 3.21485 41.0766
0.368119 3.22457 41.1975
0.312214 3.22327 41.1947
0.256313 3.22197 41.1917
0.195631 3.23347 41.2095
0.0878095 3.23048 41.3094
-0.0243037 3.22788 41.3025
-0.0803513 3.22658 41.2989
-0.136392 3.22528 41.2952
-0.646607 3.23875 41.513
-0.702905 3.23745 41.5082
-0.759191 3.23616 41.5033
-0.926551 3.23187 41.5957
-0.982929 3.23057 41.5904
-1.03929 3.22928 41.5849
-1.15111 3.22627 41.6819
-1.7847 3.2377 41.8728
-1.89789 3.2351 41.8585
-2.01237 3.23212 41.9538
-2.12566 3.22952 41.9386
-2.18227 3.22822 41.9308
-2.23885 3.22692 41.923
-2.36694 3.25088 42.0606
-2.42364 3.24959 42.0524
-2.48032 3.2483 42.044
-2.65175 3.24425 42.0739
4.03045 3.15548 39.9415
3.91304 3.14174 39.8317
3.56934 3.16608 40.2146
3.51547 3.16477 40.218
3.40765 3.16213 40.2243
3.3537 3.16081 40.2273
3.29973 3.1595 40.2302
3.24574 3.15818 40.233
3.13768 3.15554 40.2384
2.98665 3.15096 40.3461
2.8781 3.14831 40.3504
2.50076 3.1627 40.5042
2.44613 3.16138 40.5055
2.39149 3.16007 40.5067
2.33683 3.15875 40.5077
2.23687 3.1555 40.6116
2.12717 3.15286 40.6131
2.06861 3.16384 40.634
2.0137 3.16252 40.6345
1.95877 3.16121 40.6348
1.84507 3.1709 40.6556
1.74325 3.1677 40.7586
1.68809 3.16639 40.7584
1.63293 3.16508 40.7581
1.57776 3.16377 40.7577
1.47115 3.16084 40.8084
1.08547 3.17581 40.9986
0.974299 3.17319 40.9956
0.918711 3.17189 40.9939
0.86312 3.17058 40.9921
0.701935 3.16607 41.0911
0.590456 3.16344 41.0865
0.47898 3.16082 41.0816
-0.0248358 3.17339 41.3073
-0.0808853 3.17209 41.3037
-0.136928 3.17078 41.3
-0.301952 3.16628 41.3948
-0.414256 3.16366 41.3863
-0.531729 3.17399 41.3984
-0.759736 3.18121 41.5078
-0.927087 3.17675 41.6002
-0.983467 3.17545 41.5948
-1.03983 3.17415 41.5892
-1.15164 3.17097 41.6862
-1.55839 3.18771 41.7946
-1.61493 3.18641 41.7879
-1.78523 3.18198 41.8769
-1.89841 3.17938 41.8625
-2.0115 3.17678 41.8478
-2.12617 3.17363 41.9424
-2.65226 3.18804 42.0776
3.56901 3.11402 40.2213
3.51513 3.11268 40.2245
3.4073 3.11002 40.2308
3.35335 3.10868 40.2338
3.29937 3.10735 40.2367
3.24537 3.10601 40.2395
3.13731 3.10334 40.2447
2.6044 3.11298 40.4567
2.50034 3.10996 40.5103
2.4457 3.10863 40.5115
2.39105 3.1073 40.5127
2.33639 3.10597 40.5137
2.23172 3.10293 40.5665
2.12672 3.09988 40.6189
1.63245 3.11177 40.7637
1.57727 3.11044 40.7633
1.47067 3.10742 40.8139
1.3084 3.10306 40.8632
1.25303 3.10173 40.8621
1.19767 3.1004 40.861
0.973789 3.11938 41.0008
0.918198 3.11806 40.9992
0.862604 3.11674 40.9973
0.701421 3.11205 41.0962
0.194558 3.12486 41.2194
0.0827075 3.12223 41.2129
-0.0253706 3.11889 41.3121
-0.081422 3.11758 41.3085
-0.137467 3.11627 41.3047
-0.302484 3.11159 41.3994
-0.927626 3.12162 41.6046
-0.984006 3.12031 41.5991
-1.04037 3.119 41.5936
-1.38366 3.12357 41.6877
-1.61547 3.13084 41.7921
-1.67198 3.12954 41.7853
-1.78576 3.12624 41.8809
-1.89894 3.12364 41.8665
-2.36797 3.13862 42.0682
-2.42468 3.13732 42.0599
-2.48135 3.13603 42.0515
-2.65276 3.13181 42.0813
4.02988 3.05234 39.9552
3.90983 3.05053 39.865
3.40695 3.05788 40.2374
3.35299 3.05652 40.2403
3.29901 3.05517 40.2432
3.24501 3.05382 40.2459
3.19098 3.05247 40.2486
3.13693 3.05112 40.2511
2.98588 3.04615 40.3587
2.8741 3.05545 40.3831
2.8165 3.06613 40.4053
2.76211 3.06479 40.4071
2.7077 3.06345 40.4088
2.60398 3.06033 40.4628
2.49991 3.0572 40.5163
2.44527 3.05585 40.5175
2.39062 3.05451 40.5186
1.84412 3.06465 40.6671
1.7423 3.06111 40.7699
1.68714 3.05977 40.7697
1.63197 3.05843 40.7694
1.57679 3.0571 40.7689
1.47018 3.05397 40.8195
0.973275 3.06555 41.0062
0.917681 3.06422 41.0044
0.862085 3.06289 41.0026
0.700904 3.05802 41.1014
0.589416 3.05536 41.0967
0.533672 3.05402 41.0943
0.477929 3.05269 41.0917
0.30589 3.07317 41.2305
0.249952 3.07185 41.2275
0.194018 3.07053 41.2244
0.0821629 3.06789 41.2178
-0.0259082 3.06438 41.317
-0.760832 3.07127 41.5168
-0.928166 3.06647 41.609
-0.984548 3.06516 41.6036
-1.61601 3.07526 41.7962
-1.67253 3.07396 41.7894
-1.89947 3.06789 41.8705
-2.1272 3.0618 41.9502
-2.36849 3.08246 42.0721
-2.42519 3.08117 42.0637
-2.48187 3.07987 42.0553
4.02958 3.00073 39.9621
3.90951 2.99902 39.8719
3.56833 3.00982 40.2345
3.51445 3.00845 40.2378
3.40659 3.00571 40.2439
3.35263 3.00435 40.2468
3.29864 3.00298 40.2496
3.24463 3.00161 40.2524
3.1906 3.00024 40.255
3.13655 2.99887 40.2575
2.9855 2.99371 40.365
2.59839 3.00816 40.4181
2.49948 3.00442 40.5224
2.44484 3.00306 40.5236
2.39018 3.0017 40.5246
2.3355 3.00034 40.5256
2.22611 2.99762 40.5273
2.12582 2.99385 40.6306
2.06724 3.00469 40.6515
2.01231 3.00333 40.6519
1.95362 3.01419 40.6726
1.84364 3.0115 40.6728
1.74182 3.00778 40.7756
1.68666 3.00643 40.7753
1.63148 3.00508 40.775
1.5763 3.00373 40.7745
1.08394 3.01438 41.0147
1.02835 3.01304 41.0131
0.972759 3.0117 41.0115
0.917162 3.01036 41.0097
0.861563 3.00902 41.0079
0.805962 3.00768 41.0059
0.700385 3.00397 41.1065
0.588891 3.00128 41.1019
0.0816155 3.01352 41.2227
-0.0264484 3.00984 41.3218
-0.0825034 3.00851 41.3181
-0.138552 3.00719 41.3143
-0.303557 3.00216 41.4089
-0.42621 3.02518 41.4424
-0.761384 3.01628 41.5213
-1.39051 3.02588 41.7175
-1.44696 3.02458 41.7111
-1.61655 3.01966 41.8004
-1.67307 3.01836 41.7935
-2.36901 3.02629 42.0759
-2.42571 3.025 42.0676
-2.48239 3.0237 42.0591
-2.65378 3.01933 42.0887
4.09649 2.94932 40.0637
3.5141 2.9563 40.2444
3.40624 2.95353 40.2505
3.35227 2.95214 40.2534
3.29828 2.95076 40.2561
3.24426 2.94937 40.2588
3.19022 2.94799 40.2614
3.13616 2.94661 40.2639
2.76127 2.95965 40.4195
2.70685 2.95827 40.4212
2.59795 2.95553 40.4243
2.49905 2.95162 40.5284
2.4444 2.95024 40.5296
2.38974 2.94887 40.5307
2.33506 2.9475 40.5316
2.22565 2.94475 40.5332
1.84315 2.95832 40.6785
1.68617 2.95307 40.781
1.5758 2.95035 40.7801
1.30691 2.94234 40.8795
1.08343 2.96053 41.02
0.972239 2.95783 41.0168
0.916639 2.95648 41.015
0.861038 2.95513 41.0131
0.805434 2.95378 41.0112
0.30481 2.96448 41.2406
0.192929 2.96181 41.2343
-0.0269912 2.95529 41.3267
-0.0830481 2.95396 41.323
-0.139098 2.95262 41.3191
-0.482971 2.96904 41.4426
-0.539164 2.96771 41.438
-0.595345 2.96639 41.4332
-0.761938 2.96127 41.5259
-0.929255 2.95612 41.6179
-0.985638 2.9548 41.6124
-1.04201 2.95348 41.6068
-1.16029 2.96383 41.6164
-1.39106 2.97044 41.7217
-1.44751 2.96913 41.7154
-1.61709 2.96405 41.8045
-1.67361 2.96275 41.7977
-2.19737 2.97514 41.9934
-2.36953 2.97011 42.0797
-2.42623 2.96882 42.0714
-2.48291 2.96752 42.0629
-2.53956 2.96623 42.0543
-2.65583 2.96248 42.1478
4.0962 2.89755 40.0707
3.40587 2.90132 40.257
3.3519 2.89992 40.2599
3.2979 2.89852 40.2627
3.24388 2.89712 40.2653
3.18984 2.89572 40.2679
3.13577 2.89432 40.2703
2.97908 2.88944 40.3274
2.87288 2.89789 40.4019
2.81526 2.90843 40.424
2.76085 2.90704 40.4258
2.70642 2.90566 40.4274
2.59751 2.90288 40.4304
2.44396 2.8974 40.5357
2.38929 2.89602 40.5367
1.84267 2.90513 40.6843
1.68568 2.89969 40.7867
1.6305 2.89832 40.7863
1.57531 2.89694 40.7857
0.916114 2.90258 41.0203
0.86051 2.90122 41.0184
0.804903 2.89986 41.0164
0.699336 2.89581 41.1169
0.587833 2.89309 41.1121
0.532082 2.89173 41.1096
0.4717 2.90291 41.1277
0.304265 2.91012 41.2456
-0.539727 2.91287 41.4426
-0.706201 2.90757 41.5355
-0.762494 2.90624 41.5304
-0.929802 2.90093 41.6224
-1.04256 2.89827 41.6112
-1.44807 2.91368 41.7196
-1.61764 2.90843 41.8087
-1.67416 2.90712 41.8018
-1.90106 2.90054 41.8826
-2.14125 2.92041 42.0053
-2.19791 2.91911 41.9974
-2.42676 2.91262 42.0752
-2.48343 2.91133 42.0667
4.02868 2.84578 39.9829
3.90854 2.84438 39.8924
3.50713 2.85265 40.2077
3.35153 2.84767 40.2665
3.29753 2.84626 40.2692
3.2435 2.84484 40.2718
3.18945 2.84342 40.2743
3.13538 2.84201 40.2768
3.08129 2.84059 40.2791
2.59707 2.85021 40.4366
2.44351 2.84455 40.5417
2.38884 2.84314 40.5427
2.33415 2.84174 40.5436
2.22473 2.83894 40.5451
2.06213 2.85745 40.6896
2.00716 2.85607 40.6899
1.95217 2.85468 40.6901
1.84217 2.85191 40.6901
1.78716 2.85053 40.69
1.29758 2.85971 40.9318
1.18669 2.85697 40.9293
0.971191 2.85003 41.0275
0.915586 2.84866 41.0257
0.859978 2.84729 41.0237
0.804369 2.84593 41.0217
0.698808 2.8417 41.1221
-0.0280849 2.84614 41.3364
-0.0841454 2.84479 41.3327
-0.140199 2.84344 41.3288
-0.196245 2.84209 41.3248
-0.315447 2.86335 41.4653
-0.42789 2.86067 41.4565
-0.484096 2.85934 41.4519
-0.540292 2.858 41.4473
-0.706758 2.85253 41.5401
-0.763052 2.8512 41.535
-1.3357 2.86084 41.7367
-1.39218 2.85952 41.7303
-1.44863 2.8582 41.7239
-1.61819 2.85279 41.8129
-1.67471 2.85148 41.806
-2.42728 2.85641 42.079
-2.48396 2.85512 42.0705
-2.5406 2.85383 42.0619
-2.66679 2.87786 42.0873
4.15818 2.817 40.2205
4.09562 2.79393 40.0847
3.50676 2.80051 40.2143
3.35115 2.7954 40.273
3.24311 2.79254 40.2783
3.18906 2.7911 40.2808
2.81441 2.80319 40.4366
2.75999 2.80177 40.4383
2.70555 2.80035 40.4399
2.59663 2.79752 40.4427
2.44306 2.79167 40.5478
2.38839 2.79025 40.5488
2.33369 2.78884 40.5497
1.84168 2.79868 40.6959
1.68469 2.79287 40.7981
1.5743 2.79008 40.797
1.47149 2.78564 40.899
1.30122 2.79373 40.9167
1.18617 2.80324 40.9348
0.970662 2.7961 41.0329
0.915054 2.79473 41.031
0.859444 2.79335 41.029
0.465962 2.80702 41.1587
0.410149 2.80566 41.1559
0.30085 2.80213 41.2028
-0.0286357 2.79154 41.3413
-0.0846979 2.79018 41.3375
-0.484663 2.80446 41.4566
-0.54086 2.80312 41.452
-0.707318 2.79748 41.5447
-0.763613 2.79614 41.5395
-0.819895 2.7948 41.5343
-0.936402 2.80335 41.6526
-1.04922 2.80069 41.6413
-1.16759 2.81092 41.6508
-1.33626 2.80535 41.741
-1.39274 2.80403 41.7346
-1.44919 2.80272 41.7282
-1.56219 2.79845 41.8239
-2.02752 2.81251 41.9186
-2.19899 2.807 42.0053
-2.25563 2.80571 41.9972
-2.42781 2.80019 42.0829
-2.54113 2.7976 42.0657
4.08835 2.74295 40.0422
3.90788 2.74116 39.9062
3.5064 2.74834 40.221
3.35078 2.74311 40.2796
3.24273 2.74021 40.2849
3.18867 2.73876 40.2873
3.13458 2.73731 40.2897
3.08048 2.73587 40.292
2.96904 2.74476 40.3162
2.86838 2.75196 40.4412
2.81398 2.75053 40.4429
2.75956 2.7491 40.4446
2.70511 2.74767 40.4461
2.59618 2.74481 40.4489
2.44261 2.73876 40.5539
2.38793 2.73734 40.5549
2.06117 2.75107 40.7015
1.9512 2.74824 40.7018
1.8962 2.74683 40.7018
1.84118 2.74542 40.7017
1.68419 2.73943 40.8038
1.5738 2.73661 40.8027
0.970131 2.74216 41.0382
0.91452 2.74077 41.0363
0.858907 2.73938 41.0343
0.803293 2.738 41.0323
0.697742 2.73343 41.1326
0.581633 2.74309 41.1485
0.521223 2.75414 41.1666
0.465406 2.75277 41.1639
0.40959 2.7514 41.161
0.300292 2.74779 41.2079
-0.316573 2.75362 41.4749
-0.429022 2.75092 41.466
-0.485231 2.74957 41.4614
-0.54143 2.74822 41.4567
-0.70788 2.74241 41.5493
-0.764176 2.74107 41.5441
-0.82046 2.73972 41.5389
-1.33683 2.74986 41.7453
-1.3933 2.74853 41.7389
-1.44976 2.74721 41.7324
-1.56275 2.74278 41.8281
-1.67581 2.74015 41.8143
-1.80075 2.76356 41.8427
-1.91487 2.7592 41.9378
-1.97148 2.7579 41.9303
-2.02807 2.7566 41.9226
-2.19953 2.75093 42.0092
-2.25617 2.74963 42.0011
4.08107 2.69209 39.9998
4.01401 2.69249 39.9054
3.96079 2.691 39.9093
3.90754 2.68952 39.9131
3.49975 2.69708 40.1777
3.35039 2.6908 40.2862
3.24233 2.68786 40.2914
3.18827 2.6864 40.2938
3.13418 2.68494 40.2962
3.08007 2.68347 40.2984
2.59573 2.69207 40.4551
2.44215 2.68584 40.5601
2.38747 2.6844 40.561
2.33277 2.68296 40.5618
2.27805 2.68152 40.5625
2.22332 2.68008 40.5631
2.16858 2.67864 40.5636
2.06068 2.69784 40.7074
1.9507 2.69499 40.7077
1.8957 2.69357 40.7076
1.84068 2.69215 40.7075
1.78565 2.69073 40.7073
0.969596 2.6882 41.0436
0.913983 2.6868 41.0417
0.858367 2.6854 41.0397
0.80275 2.684 41.0376
0.299731 2.69342 41.213
-0.029745 2.68228 41.3511
-0.0858107 2.68091 41.3473
-0.146885 2.69212 41.3643
-0.208013 2.70334 41.3811
-0.318675 2.69968 41.4262
-0.429592 2.69601 41.4707
-0.485802 2.69466 41.4661
-0.542002 2.69331 41.4613
-1.16873 2.70025 41.6596
-1.33739 2.69434 41.7497
-1.39387 2.69302 41.7433
-1.45032 2.6917 41.7367
-1.5633 2.6871 41.8324
-2.14341 2.69614 42.0212
-2.20008 2.69484 42.0132
-2.25671 2.69354 42.0051
-2.54864 2.69831 42.0949
-2.66842 2.70895 42.0987
4.08075 2.64034 40.0068
3.60693 2.6479 40.1783
3.49937 2.64493 40.1844
3.44555 2.64345 40.1873
3.35001 2.63846 40.2929
3.24194 2.6355 40.298
2.81311 2.64516 40.4556
2.75868 2.6437 40.4572
2.70423 2.64224 40.4587
2.59527 2.63932 40.4614
2.4417 2.6329 40.5662
1.95021 2.64172 40.7135
1.8952 2.64028 40.7135
1.84018 2.63885 40.7133
1.78515 2.63742 40.7131
1.45422 2.65102 40.8533
1.39893 2.64961 40.8524
0.520106 2.64562 41.177
0.464284 2.64423 41.1742
0.408464 2.64284 41.1713
0.299168 2.63904 41.2181
-0.430164 2.64109 41.4755
-0.486376 2.63973 41.4708
-0.542576 2.63838 41.4661
-0.598766 2.63702 41.4612
-0.709011 2.63222 41.5585
-0.765309 2.63087 41.5533
-0.821594 2.62952 41.548
-0.939593 2.63955 41.5581
-1.0565 2.64756 41.6759
-1.11291 2.64622 41.67
-1.16931 2.64489 41.6641
-1.33796 2.63882 41.754
-1.39443 2.63749 41.7476
-1.80189 2.65203 41.851
-1.91599 2.64735 41.946
-1.9726 2.64604 41.9384
-2.02919 2.64474 41.9307
-2.20062 2.63874 42.0172
-2.25726 2.63744 42.009
-2.31387 2.63615 42.0008
4.08044 2.58856 40.0139
4.01335 2.5892 39.9194
3.49899 2.59277 40.1912
3.44516 2.59127 40.194
3.34962 2.5861 40.2995
3.24154 2.5831 40.3045
3.18746 2.58161 40.3069
3.13337 2.58011 40.3092
3.07925 2.57862 40.3114
2.96777 2.58733 40.3355
2.81267 2.59244 40.4619
2.75823 2.59096 40.4635
2.70378 2.58949 40.465
2.59481 2.58654 40.4676
2.16032 2.5964 40.6162
2.0597 2.59133 40.7193
1.94971 2.58843 40.7194
1.89469 2.58698 40.7194
1.83967 2.58553 40.7192
1.78463 2.58409 40.7189
1.29494 2.59095 40.9596
1.18403 2.58811 40.9568
1.0731 2.58527 40.9536
0.9129 2.57879 41.0524
0.857279 2.57738 41.0504
0.801657 2.57596 41.0482
0.685901 2.58543 41.0642
0.57537 2.59273 41.185
0.519544 2.59133 41.1822
0.463719 2.58993 41.1794
0.407897 2.58854 41.1765
0.296262 2.58575 41.1703
-0.209169 2.59384 41.3909
-0.321372 2.59111 41.3823
-0.430738 2.58616 41.4802
-0.486951 2.58479 41.4756
-0.543153 2.58343 41.4708
-0.599344 2.58207 41.4659
-0.709579 2.5771 41.5631
-1.16989 2.58952 41.6685
-1.33852 2.58327 41.7584
-1.395 2.58194 41.7519
-1.45146 2.58061 41.7453
-1.68342 2.58595 41.8483
