3.1005 6.08247 40.4234
3.04599 6.08217 40.4273
2.93688 6.08156 40.4349
2.8823 6.08124 40.4384
2.82244 6.07712 40.3905
2.60231 6.05799 40.3314
2.55101 6.04366 40.3139
2.49647 6.04326 40.3168
2.33275 6.04202 40.3246
2.27814 6.04159 40.327
2.22351 6.04115 40.3293
2.16886 6.0407 40.3314
2.1142 6.04024 40.3335
2.05952 6.03977 40.3355
7.49795 6.30414 41.5353
7.05621 6.25375 41.2489
7.0028 6.2542 41.2614
6.94934 6.25464 41.2738
6.76711 6.24741 41.2003
6.71354 6.24781 41.2121
6.65992 6.2482 41.2238
6.19144 6.2062 41.0506
6.13766 6.20648 41.0611
6.08384 6.20674 41.0714
5.90308 6.19922 40.9936
5.84919 6.19945 41.0034
5.79663 6.18573 40.9914
5.6901 6.17216 40.9887
5.62701 6.16828 40.9445
5.56401 6.16439 40.9
5.51003 6.16454 40.9091
5.45601 6.16467 40.9181
5.40193 6.1648 40.9269
5.33916 6.16089 40.8822
4.88484 6.12165 40.7452
4.83068 6.12166 40.7528
4.77647 6.12166 40.7603
4.72223 6.12166 40.7677
4.66795 6.12164 40.7749
4.60599 6.11769 40.7293
4.54413 6.11373 40.6835
4.48987 6.11368 40.6904
4.43558 6.11363 40.6972
3.93675 6.07709 40.6059
3.88231 6.07693 40.6115
3.71238 6.07256 40.5755
3.65152 6.06854 40.5285
3.59707 6.06833 40.5335
3.54259 6.06811 40.5385
3.48808 6.06789 40.5433
3.4363 6.05373 40.5271
3.26962 6.03525 40.468
3.20933 6.03122 40.4206
3.15486 6.03093 40.4248
3.10036 6.03062 40.4288
3.04584 6.03031 40.4327
2.33255 5.99011 40.3296
2.27793 5.98966 40.332
2.2233 5.9892 40.3342
2.16865 5.98873 40.3364
2.11398 5.98826 40.3384
2.0593 5.98777 40.3404
7.75256 6.24488 41.4181
7.68742 6.24116 41.3765
7.36811 6.24436 41.4587
7.29161 6.23631 41.3607
7.00319 6.20223 41.2692
6.94971 6.20264 41.2816
6.76744 6.19546 41.208
6.71387 6.19583 41.2198
6.66024 6.19619 41.2314
6.53295 6.17467 41.1229
6.47932 6.17498 41.1341
6.42663 6.16137 41.1232
6.37293 6.16165 41.1342
6.19168 6.1543 41.0578
6.13789 6.15455 41.0683
6.08406 6.15479 41.0786
5.62717 6.11638 40.9513
5.56415 6.11253 40.9069
5.51017 6.11265 40.9159
5.45613 6.11276 40.9249
5.40206 6.11286 40.9337
5.33927 6.109 40.8889
5.27658 6.10512 40.844
5.2225 6.10519 40.8525
5.16838 6.10526 40.8608
5.11422 6.10531 40.869
4.66798 6.06972 40.7812
4.606 6.06581 40.7355
4.54413 6.0619 40.6897
4.48987 6.06183 40.6966
4.43557 6.06175 40.7033
4.38123 6.06167 40.7099
4.32686 6.06157 40.7164
4.21801 6.06136 40.7291
4.16588 6.04732 40.7141
4.09982 6.0257 40.5943
4.04548 6.02555 40.6002
3.9911 6.02538 40.606
3.93669 6.0252 40.6117
3.88225 6.02502 40.6173
3.71229 6.02066 40.5812
3.20919 5.9794 40.4261
3.15472 5.97909 40.4302
3.10022 5.97876 40.4342
3.04569 5.97843 40.4381
2.99114 5.97809 40.4418
2.93657 5.97774 40.4455
2.88197 5.97738 40.449
2.8221 5.97336 40.4011
7.74093 6.18868 41.3709
7.68794 6.18921 41.385
7.42196 6.19172 41.4536
7.36857 6.19219 41.4669
7.29204 6.18427 41.3689
7.23916 6.17079 41.3593
7.057 6.14985 41.2647
7.00357 6.15024 41.2771
6.95009 6.15061 41.2894
6.76778 6.14349 41.2157
6.42691 6.10942 41.1306
6.3732 6.10967 41.1416
6.29934 6.10193 41.0439
6.19191 6.10239 41.0651
6.13812 6.1026 41.0755
6.08428 6.10281 41.0858
5.90346 6.09541 41.0078
5.45626 6.06082 40.9316
5.40218 6.0609 40.9404
5.33938 6.05708 40.8956
5.27667 6.05325 40.8507
5.22259 6.0533 40.8591
5.16847 6.05333 40.8674
5.1143 6.05336 40.8755
5.06009 6.05338 40.8836
4.88493 6.01798 40.758
4.83076 6.01794 40.7655
4.77655 6.01789 40.773
4.72229 6.01783 40.7803
4.668 6.01777 40.7875
4.60602 6.01391 40.7418
4.54413 6.01005 40.6959
3.93663 5.9733 40.6176
3.88218 5.97309 40.6231
3.7122 5.96873 40.587
3.65133 5.96481 40.54
3.59687 5.96456 40.5449
3.54238 5.9643 40.5498
2.99099 5.92617 40.4472
2.93641 5.9258 40.4508
2.88181 5.92542 40.4543
2.82193 5.92146 40.4063
2.76216 5.91749 40.3582
2.65309 5.91667 40.3645
2.59852 5.91625 40.3674
2.33213 5.88624 40.3396
2.27751 5.88575 40.342
2.22287 5.88526 40.3442
2.16821 5.88475 40.3463
2.11354 5.88424 40.3483
2.05885 5.88372 40.3502
7.49941 6.1474 41.5601
7.05739 6.09787 41.2726
7.00395 6.09822 41.285
6.95046 6.09856 41.2973
6.76812 6.09149 41.2234
6.71453 6.0918 41.2351
6.66088 6.09209 41.2467
6.2459 6.05025 41.0619
6.19215 6.05044 41.0724
6.13835 6.05063 41.0828
6.0845 6.05081 41.0931
5.90365 6.04347 41.0149
5.84973 6.04361 41.0246
5.79715 6.0299 41.0124
5.68769 6.04397 41.0531
5.62747 6.0125 40.9651
5.56443 6.00875 40.9206
5.51043 6.00881 40.9296
5.45639 6.00887 40.9384
5.40229 6.00891 40.9472
5.33948 6.00514 40.9024
5.27676 6.00137 40.8574
4.93912 5.96617 40.7568
4.88498 5.96611 40.7644
4.8308 5.96605 40.7719
4.77658 5.96597 40.7793
4.72232 5.96589 40.7866
4.60602 5.96199 40.748
4.54413 5.95818 40.7022
4.48986 5.95806 40.709
4.43555 5.95794 40.7156
4.3812 5.9578 40.7222
4.32681 5.95766 40.7286
3.70566 5.91319 40.5406
3.65123 5.91292 40.5457
3.59676 5.91265 40.5506
3.54226 5.91237 40.5555
3.49048 5.89825 40.5393
3.43596 5.89794 40.5439
3.26923 5.87959 40.4845
3.20891 5.87571 40.4371
3.15443 5.87536 40.4411
3.09992 5.87499 40.445
3.04538 5.87462 40.4489
2.99082 5.87423 40.4526
2.93624 5.87384 40.4562
2.88164 5.87344 40.4597
2.82701 5.87303 40.4631
2.44112 5.83527 40.3398
2.38653 5.83478 40.3423
2.33192 5.83428 40.3447
2.22265 5.83326 40.3492
2.16799 5.83274 40.3513
2.11331 5.83221 40.3532
2.05861 5.83167 40.3551
7.74199 6.08479 41.3879
7.68897 6.08524 41.402
7.4999 6.0951 41.5685
7.36948 6.0878 41.4834
7.00434 6.04618 41.293
6.95083 6.04649 41.3052
6.76845 6.03948 41.2312
6.71485 6.03975 41.2429
6.66119 6.04001 41.2544
6.58743 6.01862 41.1343
6.53383 6.01885 41.1455
6.48017 6.01907 41.1567
6.42747 6.00546 41.1456
6.36361 6.00181 41.1022
6.29984 5.99815 41.0587
6.24614 5.99832 41.0693
6.19238 5.99848 41.0797
6.13858 5.99864 41.0901
6.08472 5.99878 41.1003
5.61853 5.95679 40.9184
5.56457 5.95683 40.9275
5.51056 5.95687 40.9364
5.45651 5.95689 40.9453
5.40241 5.95691 40.954
5.33958 5.95319 40.9091
5.27686 5.94946 40.8641
5.22276 5.94945 40.8725
5.16862 5.94943 40.8807
5.11444 5.9494 40.8888
4.60603 5.91006 40.7543
4.54413 5.90629 40.7084
4.48985 5.90615 40.7152
4.43553 5.906 40.7218
4.38117 5.90584 40.7284
4.32678 5.90567 40.7348
4.21789 5.90531 40.7473
4.15871 5.88768 40.6795
4.09967 5.87014 40.6122
4.04531 5.86991 40.618
3.93649 5.86943 40.6294
3.88203 5.86918 40.6349
3.20877 5.82384 40.4426
3.15428 5.82346 40.4466
3.09976 5.82308 40.4505
3.04522 5.82268 40.4543
2.93607 5.82187 40.4616
2.88146 5.82145 40.465
2.82156 5.81759 40.417
7.74252 6.0328 41.3965
7.68949 6.03322 41.4105
7.35831 6.03161 41.436
7.29335 6.028 41.3934
7.24044 6.01451 41.3837
7.05817 5.99383 41.2886
7.00472 5.99412 41.3009
6.94023 5.99053 41.2582
6.76878 5.98744 41.239
6.42774 5.95344 41.1531
6.36387 5.94984 41.1097
6.30009 5.94622 41.0661
6.24638 5.94636 41.0767
6.19262 5.9465 41.0871
6.1388 5.94662 41.0974
6.08493 5.94674 41.1076
5.90401 5.93953 41.0292
5.85008 5.93961 41.0389
5.45663 5.90489 40.9521
5.40252 5.90488 40.9608
5.33968 5.90121 40.9159
5.27694 5.89753 40.8709
5.22284 5.89749 40.8792
5.1687 5.89744 40.8873
5.11451 5.89739 40.8954
5.06028 5.89733 40.9033
4.99146 5.87626 40.7834
4.93921 5.86243 40.7698
4.88506 5.86232 40.7774
4.83087 5.86221 40.7848
4.77663 5.86208 40.7921
4.72236 5.86195 40.7993
4.60603 5.8581 40.7607
4.54412 5.85438 40.7147
4.48983 5.85422 40.7215
4.43551 5.85404 40.7281
3.93642 5.81747 40.6353
3.88195 5.81719 40.6407
3.81426 5.80999 40.5419
3.70546 5.8094 40.5522
3.65101 5.80909 40.5572
3.59653 5.80877 40.5621
3.54203 5.80845 40.5669
3.48749 5.80811 40.5715
3.43293 5.80777 40.5761
2.88128 5.76944 40.4704
2.82138 5.76564 40.4223
2.76159 5.76183 40.3741
2.65248 5.7609 40.3802
2.5979 5.76042 40.3831
2.54329 5.75993 40.3859
2.48867 5.75944 40.3885
2.43403 5.75894 40.3911
2.37937 5.75842 40.3935
2.32469 5.75791 40.3959
2.27685 5.72977 40.3571
2.2222 5.72922 40.3592
2.11284 5.7281 40.3632
2.05814 5.72752 40.365
7.50087 5.99044 41.5852
7.05856 5.94178 41.2966
7.00509 5.94203 41.3089
6.9406 5.93849 41.2661
6.76911 5.93537 41.2468
6.71549 5.93558 41.2584
6.66182 5.93578 41.2698
6.24662 5.89439 41.0841
6.19285 5.89449 41.0945
6.13902 5.89458 41.1047
6.07543 5.891 41.0608
5.90419 5.88753 41.0364
5.85025 5.88758 41.046
5.79766 5.87387 41.0337
5.61881 5.85294 40.9323
5.56483 5.85293 40.9413
5.51081 5.8529 40.9502
5.40263 5.85283 40.9676
5.33978 5.84921 40.9227
5.27703 5.84558 40.8776
4.77666 5.8101 40.7986
4.60603 5.80612 40.767
4.54411 5.80246 40.721
4.48981 5.80226 40.7277
4.43548 5.80206 40.7343
4.38112 5.80185 40.7408
4.32671 5.80164 40.7471
3.70535 5.75748 40.5581
3.6509 5.75714 40.563
3.59642 5.7568 40.5679
3.5419 5.75646 40.5726
3.48736 5.7561 40.5772
3.43279 5.75574 40.5818
3.26595 5.73747 40.5218
3.20847 5.72005 40.4537
3.15397 5.71963 40.4576
3.09944 5.7192 40.4615
3.04489 5.71876 40.4652
2.99032 5.71832 40.4688
2.8811 5.71741 40.4758
2.82119 5.71366 40.4277
2.1126 5.67602 40.3682
7.69052 5.9291 41.4276
7.50135 5.93806 41.5936
7.42428 5.93073 41.4951
7.35921 5.92722 41.4526
7.00547 5.88992 41.3169
6.94096 5.88642 41.2741
6.82301 5.8831 41.2429
6.76944 5.88328 41.2546
6.71581 5.88346 41.2662
6.66213 5.88362 41.2776
6.58832 5.8627 41.1573
6.53469 5.86283 41.1684
6.48101 5.86296 41.1794
6.42829 5.84934 41.1682
6.36439 5.84583 41.1247
6.30058 5.8423 41.081
6.24685 5.84238 41.0915
6.19307 5.84246 41.1019
6.13924 5.84252 41.1121
6.07563 5.83898 41.0682
5.61894 5.80098 40.9393
5.56496 5.80094 40.9483
5.51093 5.80089 40.9571
5.33988 5.79719 40.9295
5.27711 5.79361 40.8844
5.223 5.79351 40.8926
5.16884 5.79341 40.9007
5.11463 5.7933 40.9087
5.05211 5.78971 40.8634
4.60603 5.75412 40.7733
4.54409 5.75051 40.7273
4.48979 5.75029 40.734
4.43546 5.75007 40.7406
4.38108 5.74983 40.747
4.32668 5.74959 40.7533
4.21775 5.74908 40.7656
4.14911 5.74205 40.6664
4.09471 5.74178 40.6723
3.93626 5.71349 40.6472
3.87511 5.70986 40.6005
3.81407 5.70622 40.5537
3.70524 5.70554 40.5639
3.65078 5.70518 40.5688
3.59629 5.70482 40.5737
3.54178 5.70445 40.5784
3.48723 5.70407 40.583
3.09928 5.66723 40.467
2.88092 5.66536 40.4812
2.82099 5.66167 40.4331
2.76118 5.65797 40.3848
2.65206 5.65696 40.3908
2.59747 5.65645 40.3936
2.54286 5.65592 40.3964
7.7441 5.87668 41.4223
7.69104 5.877 41.4362
7.42474 5.87845 41.5035
7.35965 5.87499 41.4609
7.29512 5.85779 41.3955
7.24171 5.85802 41.4082
7.05933 5.8376 41.3127
7.00585 5.83778 41.3249
6.94132 5.83433 41.2821
6.87687 5.83086 41.2391
6.82335 5.83102 41.2508
6.42856 5.79726 41.1758
6.36465 5.79379 41.1322
6.30082 5.79031 41.0885
6.24709 5.79036 41.099
6.1933 5.7904 41.1093
6.13946 5.79044 41.1195
6.07584 5.78694 41.0755
6.0123 5.78344 41.0313
5.90454 5.78345 41.0508
5.33997 5.74515 40.9364
5.27719 5.74161 40.8912
5.22307 5.74149 40.8994
5.1689 5.74137 40.9075
5.11469 5.74123 40.9154
5.05215 5.73768 40.87
4.99159 5.72049 40.8032
4.93933 5.70667 40.7894
4.88516 5.70649 40.7969
4.83095 5.70629 40.8042
4.7767 5.70609 40.8115
4.59834 5.69877 40.7269
4.54408 5.69854 40.7337
4.48977 5.6983 40.7403
4.43543 5.69805 40.7468
3.87502 5.65789 40.6064
3.70513 5.65357 40.5698
3.65066 5.6532 40.5747
3.59617 5.65281 40.5795
3.54165 5.65242 40.5841
3.4871 5.65202 40.5887
3.42644 5.6484 40.5413
2.88073 5.61329 40.4866
2.8208 5.60966 40.4384
2.76098 5.60602 40.3902
2.65185 5.60497 40.3961
2.59725 5.60443 40.3989
2.54263 5.60389 40.4016
2.37867 5.60221 40.4091
2.32739 5.58793 40.3908
2.27271 5.58735 40.3929
2.22149 5.57303 40.3744
2.11211 5.5718 40.3782
2.0574 5.57118 40.38
7.49045 5.82958 41.5546
7.05971 5.78547 41.3208
7.00622 5.78562 41.333
6.94168 5.78221 41.2901
6.87721 5.77879 41.247
6.82368 5.77892 41.2587
6.77009 5.77904 41.2703
6.71645 5.77915 41.2818
6.65217 5.77571 41.2384
6.24732 5.73831 41.1065
6.19352 5.73833 41.1167
6.13967 5.73833 41.1269
6.07604 5.73488 41.0829
6.01249 5.73143 41.0387
5.90472 5.73138 41.0581
5.85075 5.73134 41.0676
5.79674 5.7313 41.077
5.61921 5.697 40.9534
5.56521 5.69691 40.9623
5.51117 5.6968 40.971
5.34006 5.69308 40.9432
5.27727 5.6896 40.898
5.22314 5.68945 40.9062
5.16897 5.6893 40.9142
4.77671 5.65405 40.818
4.59833 5.64681 40.7333
4.54405 5.64655 40.7401
4.48974 5.64628 40.7467
4.43539 5.64601 40.7531
4.38101 5.64573 40.7595
4.32659 5.64544 40.7658
3.65054 5.6012 40.5805
3.59604 5.60079 40.5853
3.48696 5.59996 40.5945
3.43237 5.59953 40.5989
3.25672 5.59193 40.5078
3.20508 5.57784 40.4911
3.15053 5.57737 40.4949
3.09894 5.56324 40.478
3.04437 5.56275 40.4817
2.98978 5.56224 40.4852
2.88054 5.56121 40.492
2.81531 5.55457 40.3925
2.76077 5.55404 40.3956
7.69206 5.77272 41.4534
7.49093 5.77721 41.563
7.36054 5.77045 41.4776
7.06009 5.73332 41.3289
7.00659 5.73343 41.341
6.94203 5.73007 41.2981
6.87756 5.7267 41.255
6.82402 5.72679 41.2667
6.77042 5.72688 41.2782
6.71676 5.72695 41.2897
6.6419 5.72011 41.1915
6.58919 5.70656 41.1805
6.53554 5.7066 41.1915
6.48183 5.70663 41.2024
6.42909 5.69302 41.191
6.36515 5.68964 41.1474
6.3013 5.68626 41.1036
6.24755 5.68625 41.114
6.19374 5.68623 41.1242
6.13989 5.6862 41.1343
6.07624 5.6828 41.0902
5.61934 5.64498 40.9604
5.56533 5.64485 40.9693
5.51128 5.64472 40.978
5.40304 5.64443 40.9951
5.33144 5.63773 40.8967
5.27734 5.63756 40.9049
5.22321 5.63739 40.913
5.16903 5.63721 40.921
5.1148 5.63702 40.9289
5.05224 5.63357 40.8834
4.59831 5.59483 40.7397
4.54403 5.59454 40.7464
4.48971 5.59425 40.753
4.43536 5.59395 40.7595
4.38097 5.59365 40.7658
4.32654 5.59333 40.772
4.1489 5.58603 40.6849
4.09447 5.58568 40.6906
4.04489 5.55813 40.6542
3.93601 5.55737 40.6652
3.87482 5.55389 40.6184
3.81375 5.55041 40.5715
3.70489 5.5496 40.5815
3.65041 5.54917 40.5864
3.59591 5.54875 40.5911
2.88034 5.50911 40.4975
2.8151 5.5026 40.3979
2.76055 5.50205 40.401
2.6514 5.50092 40.4068
2.5968 5.50035 40.4096
2.54217 5.49977 40.4122
2.43286 5.49859 40.4172
7.74587 5.70674 41.4254
7.69257 5.72055 41.4621
7.50327 5.72833 41.6274
7.42611 5.72148 41.5287
7.36098 5.71815 41.486
7.2964 5.70117 41.4204
7.24297 5.7013 41.433
7.16731 5.68094 41.3126
7.06047 5.68114 41.3371
7.00696 5.68122 41.3491
6.94239 5.67791 41.3062
6.8779 5.67458 41.263
6.82435 5.67464 41.2746
6.77074 5.67469 41.2862
6.42935 5.64086 41.1986
6.3654 5.63753 41.155
6.30154 5.63419 41.1112
6.24777 5.63415 41.1215
6.19396 5.6341 41.1317
6.1401 5.63405 41.1418
6.07644 5.63069 41.0976
6.01286 5.62733 41.0534
5.95898 5.62725 41.0631
5.90505 5.62717 41.0726
5.85107 5.62707 41.0821
5.40313 5.59227 41.0021
5.33152 5.58569 40.9035
5.27742 5.5855 40.9117
5.22327 5.5853 40.9198
5.16908 5.58509 40.9278
5.11485 5.58488 40.9356
5.05228 5.58148 40.8902
4.9898 5.57807 40.8445
4.93559 5.57783 40.852
4.831 5.55019 40.8239
4.77673 5.54991 40.831
4.59829 5.54282 40.7462
4.54401 5.54251 40.7528
4.48968 5.5422 40.7594
4.43532 5.54187 40.7658
4.38092 5.54154 40.7721
4.32649 5.5412 40.7783
3.87472 5.50187 40.6244
3.81364 5.49844 40.5775
3.75922 5.49801 40.5825
3.70477 5.49758 40.5874
3.65029 5.49713 40.5923
3.59578 5.49668 40.597
3.42599 5.49231 40.5586
3.25637 5.48786 40.5191
2.76034 5.45004 40.4064
2.65118 5.44888 40.4122
2.59657 5.44828 40.4149
2.54194 5.44769 40.4175
2.43262 5.44647 40.4224
2.37793 5.44585 40.4247
2.32323 5.44522 40.4269
2.26851 5.44459 40.429
2.20928 5.44106 40.3798
2.10424 5.44264 40.4346
2.04945 5.44198 40.4362
7.49187 5.6724 41.5801
7.2439 5.6354 41.4186
7.16771 5.62881 41.3208
7.11431 5.62887 41.3331
7.06085 5.62894 41.3452
7.00733 5.62899 41.3573
6.94274 5.62572 41.3142
6.87824 5.62243 41.271
6.82468 5.62246 41.2826
6.77106 5.62248 41.2941
6.71738 5.6225 41.3055
6.66365 5.6225 41.3167
6.30177 5.58211 41.1187
6.248 5.58204 41.129
6.19418 5.58196 41.1392
6.1403 5.58187 41.1492
6.07663 5.57857 41.1051
6.01304 5.57525 41.0608
5.95916 5.57514 41.0704
5.90522 5.57503 41.0799
5.85123 5.5749 41.0893
5.78928 5.55801 41.0228
5.61959 5.54087 40.9746
5.56557 5.54069 40.9834
5.5115 5.5405 40.9921
5.33159 5.53364 40.9105
5.27749 5.53342 40.9186
5.22333 5.5332 40.9267
5.16914 5.53296 40.9346
4.77674 5.49781 40.8376
4.59827 5.4908 40.7526
4.54398 5.49046 40.7592
4.48965 5.49012 40.7658
4.32644 5.48906 40.7846
4.14874 5.48191 40.6973
3.81352 5.44645 40.5835
3.70464 5.44554 40.5934
3.65015 5.44507 40.5982
3.59564 5.4446 40.6029
3.48652 5.44364 40.6119
3.42583 5.44023 40.5644
3.2562 5.43581 40.5249
3.20163 5.43529 40.5287
3.14999 5.42122 40.5118
3.0984 5.40712 40.4948
3.0408 5.42012 40.5191
2.98922 5.406 40.5018
2.81467 5.3986 40.4088
2.76012 5.39801 40.4118
2.65095 5.39681 40.4176
2.59633 5.3962 40.4203
2.5417 5.39558 40.4228
7.50422 5.6233 41.6445
7.42702 5.6167 41.5457
7.1147 5.57668 41.3413
7.06123 5.57671 41.3534
7.0077 5.57673 41.3654
6.9431 5.5735 41.3223
6.87857 5.57026 41.2791
6.825 5.57026 41.2906
6.77138 5.57025 41.3021
6.71769 5.57023 41.3134
6.65336 5.56698 41.2698
6.59005 5.55021 41.2039
6.53636 5.55016 41.2148
6.48363 5.53656 41.2033
6.42987 5.53648 41.214
6.3659 5.53324 41.1702
6.302 5.53 41.1263
6.24822 5.5299 41.1366
6.19439 5.52979 41.1467
6.14051 5.52967 41.1567
6.07682 5.52641 41.1125
6.01322 5.52315 41.0682
5.61971 5.48878 40.9817
5.56568 5.48857 40.9905
5.51161 5.48835 40.9991
5.33167 5.48157 40.9174
5.27755 5.48132 40.9255
5.22339 5.48107 40.9335
5.16919 5.48081 40.9414
5.05235 5.47724 40.9037
4.98985 5.47393 40.858
4.54394 5.43839 40.7657
4.48961 5.43803 40.7722
4.31908 5.43396 40.7384
4.14865 5.42982 40.7035
4.09421 5.42941 40.7091
4.03973 5.42899 40.7147
3.9332 5.4146 40.7044
3.87451 5.39776 40.6365
3.8134 5.39443 40.5895
3.75897 5.39396 40.5945
3.70451 5.39348 40.5993
3.65002 5.393 40.6041
3.5955 5.3925 40.6087
3.48637 5.3915 40.6177
3.42567 5.38814 40.5702
2.81445 5.34657 40.4143
2.75989 5.34596 40.4173
2.65071 5.34473 40.423
2.5961 5.3441 40.4256
2.54146 5.34346 40.4282
2.37743 5.34151 40.4352
2.26798 5.34018 40.4394
2.20874 5.33677 40.3902
2.10369 5.33813 40.4448
2.0489 5.33744 40.4464
7.74744 5.55026 41.4516
7.6941 5.56386 41.4882
7.50469 5.57075 41.6531
7.42747 5.56427 41.5542
7.35063 5.55782 41.4557
7.29768 5.54433 41.4455
7.2333 5.52763 41.3802
7.1685 5.52446 41.3374
7.11508 5.52446 41.3496
7.0616 5.52446 41.3616
7.00806 5.52445 41.3736
6.94345 5.52126 41.3304
6.87891 5.51807 41.2871
6.43013 5.48426 41.2217
6.36614 5.48106 41.1779
6.30223 5.47786 41.134
6.24844 5.47773 41.1442
6.1946 5.47759 41.1543
6.14071 5.47745 41.1642
6.07701 5.47424 41.12
6.0134 5.47102 41.0756
5.9595 5.47085 41.0852
5.90554 5.47068 41.0946
5.33174 5.42947 40.9244
5.27762 5.4292 40.9325
5.22345 5.42892 40.9404
5.05238 5.42508 40.9105
4.98987 5.42182 40.8647
4.93563 5.42151 40.8721
4.88332 5.40772 40.8579
4.83103 5.3939 40.8437
4.77674 5.39354 40.8507
4.59821 5.38668 40.7656
4.54391 5.3863 40.7721
4.48956 5.38591 40.7786
3.75884 5.3419 40.6005
3.70437 5.3414 40.6053
3.64988 5.3409 40.61
3.59535 5.34038 40.6147
3.4255 5.33603 40.576
3.3649 5.33273 40.5283
3.25583 5.33163 40.5363
2.59585 5.29198 40.431
2.54121 5.29132 40.4336
2.43187 5.28999 40.4383
2.37717 5.28932 40.4405
2.26772 5.28795 40.4446
2.20846 5.2846 40.3954
2.10341 5.28585 40.45
2.04002 5.27983 40.3493
7.49328 5.51498 41.6057
7.23371 5.47537 41.3885
7.1689 5.47225 41.3457
7.11547 5.47222 41.3578
7.06198 5.47218 41.3698
7.00843 5.47214 41.3817
6.94379 5.469 41.3386
6.87924 5.46585 41.2952
6.82565 5.46578 41.3067
6.77201 5.46571 41.3181
6.7183 5.46563 41.3293
6.66454 5.46554 41.3404
6.30246 5.42571 41.1416
6.24866 5.42554 41.1518
6.19481 5.42538 41.1618
6.14091 5.4252 41.1718
6.0772 5.42204 41.1275
6.01358 5.41887 41.0831
5.95966 5.41867 41.0926
5.9057 5.41847 41.102
5.85309 5.4048 41.0893
5.77893 5.41211 41.0127
5.61994 5.38453 40.996
5.5659 5.38427 41.0047
5.51181 5.38399 41.0133
5.33181 5.37735 40.9313
5.27768 5.37705 40.9394
5.2235 5.37674 40.9473
4.7067 5.33538 40.7587
4.59818 5.33459 40.7721
4.54387 5.33419 40.7786
4.48952 5.33377 40.785
4.31894 5.32971 40.751
4.14847 5.32559 40.716
4.09402 5.32513 40.7216
3.5952 5.28824 40.6206
3.41923 5.28121 40.53
3.25564 5.27951 40.5421
3.20106 5.27893 40.5459
3.14645 5.27835 40.5496
2.98249 5.27655 40.56
2.86854 5.2431 40.4222
2.814 5.24246 40.4253
2.75943 5.24181 40.4282
2.65024 5.2405 40.4338
2.59561 5.23984 40.4364
2.54096 5.23916 40.4389
2.37691 5.23711 40.4458
2.03973 5.22766 40.3545
7.49375 5.46246 41.6144
7.11585 5.41995 41.3661
7.06235 5.41988 41.3781
7.00879 5.4198 41.3899
6.94414 5.41671 41.3467
6.87957 5.41361 41.3033
6.82598 5.41351 41.3148
6.77232 5.4134 41.3261
6.71861 5.41329 41.3373
6.65514 5.39671 41.271
6.59088 5.39364 41.2275
6.53717 5.39349 41.2383
6.48442 5.3799 41.2267
6.43064 5.37973 41.2372
6.36662 5.37663 41.1933
6.30268 5.37352 41.1493
6.24888 5.37333 41.1594
6.19502 5.37314 41.1694
6.14111 5.37293 41.1793
6.07739 5.36982 41.135
5.56601 5.33208 41.0119
5.51191 5.33178 41.0204
5.33187 5.32521 40.9383
5.27774 5.32488 40.9464
5.22355 5.32455 40.9543
5.05243 5.32071 40.9241
4.9899 5.31755 40.8783
4.65243 5.28291 40.772
4.59815 5.28248 40.7786
4.54383 5.28205 40.7851
4.48947 5.28161 40.7915
4.31156 5.27484 40.7049
4.20281 5.27391 40.7166
4.14838 5.27344 40.7222
4.09392 5.27295 40.7278
3.9354 5.2446 40.7016
3.87022 5.24949 40.6512
3.81302 5.23827 40.6076
3.75858 5.23773 40.6125
3.7041 5.23719 40.6173
3.64959 5.23664 40.622
3.59505 5.23608 40.6265
3.41905 5.22914 40.5359
2.98288 5.19488 40.4728
2.70461 5.18904 40.4366
2.64999 5.18836 40.4393
2.59536 5.18768 40.4418
2.54071 5.18699 40.4443
2.37664 5.18488 40.4511
2.2079 5.1802 40.4059
2.03943 5.17547 40.3596
7.74899 5.39353 41.4781
7.69586 5.39352 41.4915
7.50611 5.41295 41.6789
7.42882 5.40683 41.5799
7.36405 5.39028 41.5137
7.29894 5.38725 41.4709
7.23453 5.37078 41.4053
7.16968 5.36774 41.3624
7.11623 5.36765 41.3744
7.06272 5.36755 41.3864
7.00915 5.36744 41.3982
6.94449 5.36439 41.3549
6.8799 5.36134 41.3115
6.48468 5.32763 41.2345
6.43089 5.32743 41.245
6.36686 5.32438 41.2011
6.30291 5.32132 41.157
6.24909 5.3211 41.1671
6.19523 5.32087 41.177
6.14131 5.32064 41.1869
6.07757 5.31757 41.1425
6.01392 5.31449 41.098
5.95999 5.31424 41.1075
5.90601 5.31398 41.1168
5.85198 5.31371 41.126
5.33194 5.27304 40.9454
5.27779 5.27269 40.9534
5.2236 5.27233 40.9612
5.05245 5.26849 40.9309
4.98991 5.26538 40.8851
4.93565 5.26499 40.8924
4.88135 5.26459 40.8995
4.82902 5.2508 40.8851
4.77468 5.25038 40.892
4.70665 5.23124 40.7719
4.6524 5.2308 40.7786
4.59811 5.23035 40.7852
4.54378 5.2299 40.7916
4.48942 5.22943 40.798
4.31148 5.22274 40.7112
3.75844 5.18562 40.6186
3.70395 5.18505 40.6233
3.64944 5.18448 40.628
3.5949 5.1839 40.6325
3.41887 5.17705 40.5417
3.36436 5.17644 40.5458
3.30982 5.17584 40.5498
3.25525 5.17522 40.5536
3.20066 5.1746 40.5574
3.14604 5.17397 40.561
2.37637 5.13263 40.4565
2.20761 5.12797 40.4111
2.03912 5.12327 40.3648
7.49467 5.35733 41.6316
7.23493 5.31845 41.4137
7.17007 5.31545 41.3708
7.11661 5.31533 41.3828
7.06309 5.3152 41.3947
7.00951 5.31506 41.4064
6.94483 5.31205 41.3631
6.88023 5.30904 41.3197
6.82661 5.30888 41.331
6.77294 5.30871 41.3422
6.30313 5.26909 41.1647
6.24931 5.26884 41.1748
6.19543 5.26858 41.1847
6.14151 5.26832 41.1945
6.07775 5.2653 41.1501
6.01409 5.26227 41.1055
5.96015 5.26199 41.115
5.90616 5.2617 41.1243
5.85212 5.26141 41.1335
5.77931 5.25563 41.0347
5.62028 5.22799 41.0176
5.5121 5.22729 41.0347
5.332 5.22085 40.9524
5.27784 5.22048 40.9604
5.22365 5.22009 40.9682
4.70662 5.17913 40.7786
4.65236 5.17867 40.7852
4.59807 5.1782 40.7917
4.54374 5.17772 40.7982
4.48937 5.17723 40.8045
4.31872 5.17318 40.7702
4.25703 5.17011 40.7235
4.20262 5.1696 40.7292
4.14818 5.16908 40.7348
4.09371 5.16855 40.7404
3.42481 5.1274 40.5995
3.36417 5.12431 40.5517
3.30962 5.12368 40.5556
3.25505 5.12305 40.5595
3.20046 5.12241 40.5632
3.14583 5.12176 40.5668
2.8133 5.08615 40.4419
2.75872 5.08545 40.4448
2.70412 5.08474 40.4475
2.6495 5.08403 40.4502
2.59485 5.08331 40.4527
2.54019 5.08258 40.4552
2.3761 5.08037 40.4618
2.20732 5.07573 40.4164
2.03881 5.07105 40.37
7.48323 5.30184 41.5844
7.42972 5.30174 41.5971
7.11699 5.26298 41.3911
7.06345 5.26282 41.403
7.00986 5.26264 41.4147
6.93413 5.25691 41.3164
6.88056 5.25672 41.3278
6.82693 5.25653 41.3391
6.77325 5.25633 41.3503
6.656 5.23978 41.295
6.5917 5.23684 41.2513
6.53797 5.23661 41.2619
6.43139 5.22276 41.2606
6.36732 5.2198 41.2166
6.30335 5.21683 41.1724
6.24952 5.21656 41.1825
6.19563 5.21627 41.1923
6.1417 5.21598 41.2021
6.07793 5.213 41.1577
6.01425 5.21002 41.1131
5.51219 5.17501 41.0418
5.33205 5.16864 40.9595
5.27789 5.16824 40.9674
5.22369 5.16783 40.9752
5.04415 5.16141 40.8914
4.98992 5.16097 40.8988
4.93565 5.16053 40.906
4.48931 5.12501 40.811
4.31131 5.11848 40.7241
4.25693 5.11795 40.7299
4.20252 5.11741 40.7356
4.14808 5.11686 40.7412
4.0936 5.11631 40.7467
4.03908 5.11576 40.752
3.92996 5.11463 40.7624
3.86449 5.09582 40.6419
3.75815 5.08133 40.6307
3.70366 5.08072 40.6354
3.64913 5.0801 40.64
3.58824 5.07709 40.5926
3.42462 5.07519 40.6054
3.36398 5.07216 40.5576
3.30942 5.07151 40.5615
3.25485 5.07085 40.5653
2.59459 5.03109 40.4582
2.53993 5.03035 40.4606
2.37582 5.02808 40.4672
2.2025 5.02118 40.3706
2.0385 5.01881 40.3752
7.80383 5.22337 41.4682
7.69738 5.23644 41.518
7.4956 5.2521 41.649
7.36535 5.23284 41.5394
7.3007 5.2166 41.4736
7.23574 5.2137 41.4307
7.17084 5.2108 41.3876
7.11736 5.21061 41.3995
7.06382 5.21041 41.4113
7.01022 5.21021 41.423
6.93446 5.20459 41.3246
6.88088 5.20437 41.336
6.35735 5.16486 41.1701
6.30356 5.16455 41.1802
6.24972 5.16425 41.1902
6.19583 5.16393 41.2
6.14189 5.16361 41.2098
6.07811 5.16069 41.1653
6.01441 5.15775 41.1206
5.96046 5.15741 41.13
5.90645 5.15707 41.1392
5.8524 5.15672 41.1483
5.33211 5.11641 40.9666
5.27794 5.11598 40.9744
5.22373 5.11554 40.9822
5.04416 5.1092 40.8984
4.98992 5.10874 40.9056
4.93564 5.10827 40.9128
4.88132 5.1078 40.9199
4.82899 5.09403 40.9053
4.77462 5.09353 40.9122
4.70655 5.07486 40.7919
4.65228 5.07435 40.7985
4.59798 5.07383 40.8049
4.54363 5.0733 40.8113
4.48925 5.07277 40.8175
4.25684 5.06576 40.7363
4.20242 5.0652 40.742
4.14797 5.06463 40.7475
3.64897 5.02788 40.646
3.58807 5.02492 40.5987
3.41831 5.02064 40.5595
3.36378 5.01998 40.5635
3.30922 5.01931 40.5674
3.25464 5.01864 40.5711
3.20004 5.01796 40.5748
3.1454 5.01727 40.5784
2.3708 4.97356 40.4215
2.20219 4.96897 40.3759
2.03819 4.96656 40.3805
7.48413 5.19671 41.6018
7.30112 5.16414 41.4821
7.23614 5.16129 41.4392
7.17123 5.15843 41.396
7.11774 5.15821 41.4079
7.06418 5.15798 41.4197
7.01057 5.15774 41.4313
6.9348 5.15225 41.3329
6.88121 5.152 41.3443
6.82756 5.15175 41.3555
6.77385 5.15149 41.3666
6.30378 5.11225 41.188
6.24993 5.11191 41.1979
6.14208 5.11122 41.2174
6.07828 5.10834 41.1729
6.01457 5.10546 41.1282
5.96061 5.10509 41.1375
5.9066 5.10472 41.1467
5.85254 5.10434 41.1558
5.77967 5.09894 41.0569
5.61903 5.08449 41.0612
5.51236 5.07037 41.0562
5.38629 5.06461 40.9657
5.33216 5.06416 40.9737
5.27799 5.0637 40.9815
5.22377 5.06324 40.9892
4.54357 5.02106 40.8179
4.48919 5.0205 40.8241
4.31113 5.01413 40.737
4.20232 5.01297 40.7484
4.14786 5.01238 40.7539
4.09337 5.01178 40.7593
4.03884 5.01118 40.7646
3.36358 4.96779 40.5694
3.30902 4.9671 40.5732
3.25443 4.96641 40.577
3.19982 4.96571 40.5806
3.13944 4.96277 40.5326
2.98113 4.96285 40.5941
2.70336 4.92815 40.4642
2.64872 4.92739 40.4667
2.59407 4.92661 40.4692
2.53443 4.92368 40.4205
2.37051 4.92131 40.4269
2.20189 4.91674 40.3812
2.03787 4.91428 40.3857
7.49651 5.14675 41.6665
7.17161 5.10604 41.4045
7.11811 5.10578 41.4164
7.06454 5.10552 41.4281
7.01092 5.10525 41.4397
6.93513 5.09988 41.3412
6.88153 5.09961 41.3525
6.82787 5.09932 41.3637
6.77415 5.09903 41.3748
6.64621 5.08014 41.2646
6.5925 5.07982 41.2753
6.53974 5.06626 41.2635
6.3578 5.06028 41.1858
6.30399 5.05992 41.1958
6.25013 5.05956 41.2057
6.07845 5.05598 41.1806
6.01473 5.05314 41.1358
5.51244 5.01802 41.0635
5.38635 5.01235 40.9729
5.33221 5.01188 40.9808
5.27803 5.01139 40.9886
5.2238 5.01091 40.9963
5.04417 5.00471 40.9122
4.98991 5.0042 40.9194
4.20221 4.96071 40.7548
4.14774 4.9601 40.7603
4.09325 4.95948 40.7657
4.03872 4.95886 40.7709
3.86405 4.93927 40.6605
3.80957 4.93862 40.6653
3.75505 4.93796 40.67
3.70318 4.92406 40.6537
3.64864 4.92339 40.6582
3.58772 4.92053 40.6108
3.41792 4.91628 40.5714
3.36338 4.91557 40.5753
3.30881 4.91487 40.5791
3.25422 4.91415 40.5829
3.1996 4.91343 40.5865
2.5938 4.87434 40.4747
2.53416 4.87146 40.4259
2.37022 4.86904 40.4323
2.31085 4.86615 40.3831
2.20158 4.8645 40.3865
2.14692 4.86367 40.3881
2.09224 4.86283 40.3896
2.03755 4.86199 40.391
7.80541 5.06635 41.4951
7.69914 5.0659 41.5216
7.43149 5.09124 41.6319
7.35493 5.07265 41.5099
7.30195 5.05914 41.4993
7.23693 5.05638 41.4562
7.17199 5.05362 41.413
7.11848 5.05333 41.4248
7.0649 5.05304 41.4365
7.01127 5.05274 41.4481
6.93546 5.04749 41.3495
6.88185 5.04718 41.3608
6.35801 5.00796 41.1936
6.3042 5.00757 41.2036
6.25033 5.00718 41.2135
6.06882 5.00121 41.1341
6.01489 5.00079 41.1435
5.96091 5.00037 41.1527
5.90688 4.99994 41.1618
5.8528 4.99951 41.1708
5.3864 4.96008 40.98
5.33226 4.95958 40.9879
5.27807 4.95907 40.9957
5.22383 4.95855 41.0034
5.04417 4.95243 40.9192
4.98991 4.9519 40.9264
4.9356 4.95135 40.9334
4.82688 4.95025 40.9472
4.76659 4.93423 40.8794
4.70643 4.91829 40.812
4.65214 4.9177 40.8185
4.59781 4.91711 40.8249
4.54345 4.91651 40.8311
4.48149 4.91372 40.7848
4.41964 4.91092 40.7383
4.31094 4.90969 40.75
4.25653 4.90907 40.7557
4.2021 4.90844 40.7612
4.14763 4.90781 40.7667
3.58754 4.8683 40.6168
3.41772 4.86406 40.5774
3.36317 4.86334 40.5813
3.3086 4.86261 40.5851
3.254 4.86188 40.5888
3.19938 4.86114 40.5923
3.13898 4.85831 40.5442
3.0787 4.85549 40.496
2.31055 4.81392 40.3885
2.20126 4.81224 40.3919
2.1466 4.81139 40.3935
7.80593 5.01396 41.5042
7.30236 5.00661 41.5079
7.23733 5.00389 41.4648
7.17237 5.00117 41.4215
7.11885 5.00085 41.4333
7.06526 5.00053 41.4449
6.93578 4.99507 41.3579
6.88216 4.99473 41.3691
6.82848 4.99439 41.3802
6.77475 4.99403 41.3912
6.35823 4.95561 41.2015
6.30441 4.95519 41.2115
6.25053 4.95477 41.2213
6.06898 4.94887 41.1418
6.01504 4.94843 41.1511
5.96105 4.94798 41.1603
5.78001 4.94203 41.0793
5.67341 4.92793 41.0748
5.61931 4.92744 41.0833
5.3323 4.90725 40.9951
5.2781 4.90672 41.0028
5.22386 4.90618 41.0105
4.54338 4.8642 40.8378
4.48898 4.86358 40.8439
4.41955 4.85872 40.7449
4.31083 4.85744 40.7565
4.25643 4.8568 40.7621
4.20198 4.85614 40.7677
4.14751 4.85549 40.7731
4.093 4.85483 40.7784
3.41751 4.81183 40.5834
3.36296 4.81109 40.5872
3.30838 4.81034 40.591
3.25378 4.80958 40.5947
3.19916 4.80883 40.5982
3.1445 4.80806 40.6017
3.07846 4.80328 40.5018
2.96932 4.80173 40.5082
2.86008 4.80016 40.5141
2.80543 4.79937 40.5168
2.70256 4.7714 40.4809
2.64791 4.77057 40.4834
2.59325 4.76974 40.4858
2.52862 4.76504 40.3859
2.36962 4.76445 40.4431
2.31024 4.76167 40.3939
2.20095 4.75996 40.3973
2.14628 4.75909 40.3988
2.09159 4.75822 40.4002
2.03689 4.75735 40.4015
7.48594 4.98612 41.6369
7.22622 4.94904 41.4182
7.17275 4.9487 41.4301
7.11921 4.94835 41.4418
7.06562 4.94799 41.4534
6.93611 4.94263 41.3662
6.88248 4.94226 41.3774
6.82879 4.94188 41.3885
6.64702 4.92299 41.289
6.59329 4.92258 41.2995
6.5405 4.90902 41.2875
6.35844 4.90324 41.2094
6.30461 4.90279 41.2193
6.25073 4.90234 41.2291
6.06914 4.89651 41.1495
6.01519 4.89603 41.1588
5.96119 4.89556 41.1679
5.3865 4.85546 40.9945
5.33234 4.8549 41.0023
5.27814 4.85434 41.01
5.21531 4.85165 40.9644
5.04416 4.84781 40.9332
4.98988 4.84722 40.9403
4.93557 4.84663 40.9473
4.41946 4.80649 40.7515
4.31073 4.80517 40.763
4.25631 4.8045 40.7686
4.20186 4.80383 40.7742
4.14738 4.80315 40.7796
4.09287 4.80246 40.7848
4.03136 4.79975 40.7377
3.86099 4.79564 40.7002
3.80646 4.79493 40.7049
3.75455 4.78109 40.6886
3.69999 4.78036 40.6931
3.6454 4.77963 40.6975
3.58717 4.76379 40.629
3.52634 4.76109 40.5814
3.4173 4.75958 40.5894
3.36275 4.75881 40.5932
3.30817 4.75804 40.597
3.25356 4.75727 40.6006
3.19893 4.75649 40.6041
3.13851 4.75378 40.556
3.07821 4.75106 40.5077
2.36455 4.71028 40.3975
2.30993 4.70941 40.3993
2.20063 4.70766 40.4027
2.14595 4.70678 40.4041
2.09126 4.70589 40.4055
7.80697 4.90908 41.5223
7.70064 4.90843 41.5485
7.48638 4.93341 41.6458
7.35668 4.90181 41.5131
7.30317 4.90145 41.5252
7.23811 4.89882 41.482
7.17312 4.89619 41.4386
7.11958 4.89581 41.4503
6.93643 4.89016 41.3746
6.54075 4.85655 41.2956
6.35866 4.85084 41.2174
6.30481 4.85036 41.2272
6.25092 4.84988 41.237
6.0693 4.84412 41.1572
6.01534 4.84362 41.1665
5.96133 4.84311 41.1756
5.78022 4.8373 41.0944
5.38655 4.80311 41.0017
5.33238 4.80253 41.0095
5.27817 4.80194 41.0172
5.21533 4.79931 40.9715
5.09839 4.79606 40.933
5.04415 4.79546 40.9402
4.98986 4.79485 40.9473
4.93554 4.79423 40.9543
4.82678 4.79299 40.9679
4.76646 4.77721 40.8999
4.70418 4.77459 40.8536
4.65197 4.76085 40.8387
4.59763 4.76019 40.845
4.54324 4.75952 40.8511
4.48125 4.75688 40.8047
4.41936 4.75424 40.7581
4.31062 4.75288 40.7696
4.2562 4.75219 40.7752
4.20174 4.75149 40.7807
4.14725 4.75079 40.786
4.09273 4.75008 40.7913
3.58062 4.70962 40.5833
3.52613 4.70885 40.5875
3.41709 4.7073 40.5954
3.36253 4.70652 40.5992
3.30794 4.70573 40.6029
3.25333 4.70494 40.6065
3.19869 4.70414 40.61
3.13827 4.70148 40.5618
3.07796 4.69881 40.5135
2.91418 4.69637 40.5227
2.85954 4.69555 40.5255
2.80488 4.69472 40.5283
2.2003 4.65534 40.408
7.80749 4.8566 41.5314
7.70114 4.85589 41.5575
7.48683 4.88067 41.6546
7.30358 4.84883 41.5339
7.2385 4.84625 41.4907
7.1735 4.84367 41.4472
7.11994 4.84325 41.4589
6.93675 4.83766 41.383
6.8831 4.83723 41.3941
6.82939 4.83679 41.4051
6.35887 4.79841 41.2253
6.30501 4.79791 41.2351
6.25111 4.7974 41.2448
6.06945 4.7917 41.165
6.01549 4.79118 41.1742
5.96147 4.79064 41.1832
5.7818 4.77187 41.0801
5.72776 4.7713 41.0887
5.67368 4.77074 41.0971
5.61956 4.77016 41.1055
5.49482 4.75194 40.9931
5.44073 4.75134 41.0011
5.38659 4.75074 41.009
5.33241 4.75013 41.0167
5.27819 4.74952 41.0243
5.21534 4.74693 40.9787
5.09838 4.74372 40.9401
5.04413 4.74309 40.9472
4.48116 4.70456 40.8114
4.41926 4.70197 40.7647
4.31051 4.70056 40.7762
4.25608 4.69985 40.7817
4.20162 4.69913 40.7872
4.0926 4.69768 40.7977
4.03107 4.69507 40.7505
3.96966 4.69247 40.7032
3.86066 4.69098 40.7128
3.80611 4.69023 40.7175
3.2531 4.65258 40.6125
3.19846 4.65177 40.616
3.13802 4.64916 40.5677
3.0777 4.64655 40.5194
2.96853 4.64489 40.5256
2.91391 4.64405 40.5285
2.85927 4.64321 40.5313
2.8046 4.64236 40.534
2.75315 4.62842 40.516
2.69848 4.62756 40.5185
2.64049 4.63979 40.5415
2.52772 4.60839 40.4026
2.3687 4.60743 40.4596
2.30929 4.60482 40.4103
2.19997 4.60301 40.4135
2.14529 4.60209 40.4149
2.0906 4.60117 40.4162
2.03588 4.60025 40.4175
7.48727 4.8279 41.6635
7.23889 4.79365 41.4993
7.17387 4.79111 41.4558
7.1203 4.79067 41.4674
6.93707 4.78514 41.3915
6.88341 4.78467 41.4025
6.82969 4.7842 41.4135
6.64782 4.7656 41.3135
6.59405 4.7651 41.3239
6.54125 4.75154 41.3118
6.35907 4.74596 41.2333
6.30521 4.74543 41.2431
6.2513 4.74489 41.2527
6.0696 4.73926 41.1727
6.01563 4.73871 41.1819
5.44077 4.69897 41.0084
5.38663 4.69835 41.0162
5.33245 4.69772 41.024
5.27822 4.69708 41.0316
5.21536 4.69454 40.9858
5.15259 4.692 40.94
5.09838 4.69135 40.9472
5.04412 4.69069 40.9543
4.98982 4.69003 40.9613
4.25596 4.64749 40.7883
4.20149 4.64675 40.7937
4.03092 4.6427 40.757
3.86048 4.63862 40.7192
3.80857 4.62482 40.7028
3.75402 4.62403 40.7073
3.69674 4.63629 40.7328
3.64484 4.62245 40.7161
3.58659 4.60686 40.6474
3.52572 4.60432 40.5997
3.41666 4.60269 40.6075
3.36209 4.60187 40.6113
3.30749 4.60104 40.6149
3.25287 4.60021 40.6185
3.19822 4.59937 40.6219
3.13777 4.59682 40.5737
2.36839 4.55505 40.4651
2.30897 4.5525 40.4157
2.25431 4.55158 40.4174
2.19964 4.55065 40.4189
2.14496 4.54972 40.4203
2.09026 4.54879 40.4216
7.79625 4.74952 41.4945
7.70213 4.75071 41.5756
7.48771 4.7751 41.6724
7.35792 4.74397 41.5394
7.30439 4.74351 41.5513
7.23928 4.74102 41.508
7.17424 4.73853 41.4645
7.12066 4.73806 41.476
6.54149 4.699 41.3199
6.46686 4.69459 41.2214
6.35928 4.69348 41.2413
6.30541 4.69292 41.251
6.25149 4.69236 41.2606
6.06975 4.6868 41.1805
6.01577 4.68622 41.1896
5.96174 4.68563 41.1987
5.38667 4.64593 41.0235
5.33248 4.64527 41.0312
5.27824 4.64461 41.0388
5.21536 4.64212 40.993
5.09836 4.63896 40.9543
5.0441 4.63828 40.9614
4.9898 4.63759 40.9684
4.93545 4.6369 40.9752
4.76421 4.63301 40.9421
4.70399 4.61751 40.8741
4.65178 4.6038 40.8591
4.59741 4.60307 40.8653
4.543 4.60233 40.8713
4.48098 4.59985 40.8248
4.41906 4.59737 40.7781
4.31028 4.59586 40.7894
4.25584 4.59511 40.7949
4.20136 4.59434 40.8002
4.03077 4.5903 40.7634
3.41644 4.55035 40.6136
3.36186 4.54951 40.6174
3.30726 4.54866 40.621
3.25263 4.54781 40.6245
3.19798 4.54696 40.6279
3.13752 4.54446 40.5796
3.07718 4.54196 40.5312
2.96799 4.54023 40.5373
2.91336 4.53935 40.5401
2.85871 4.53847 40.5429
2.74934 4.5367 40.5481
2.69462 4.53581 40.5505
2.63989 4.53491 40.5528
7.79676 4.69704 41.5036
7.70262 4.69808 41.5847
7.41182 4.69179 41.5361
7.35834 4.6913 41.5482
7.30479 4.69081 41.5601
7.23966 4.68837 41.5167
7.17461 4.68592 41.4731
7.12102 4.68541 41.4846
6.93771 4.68001 41.4084
6.88402 4.67948 41.4194
6.83029 4.67895 41.4302
6.35948 4.64098 41.2493
6.3056 4.64039 41.259
6.25167 4.6398 41.2686
6.0699 4.63431 41.1883
6.01591 4.6337 41.1974
5.96187 4.63308 41.2064
5.78061 4.62756 41.1247
5.72804 4.61397 41.1113
5.67393 4.61333 41.1196
5.62137 4.5997 41.106
5.49497 4.59484 41.0152
5.44086 4.59417 41.0231
5.3867 4.59349 41.0309
5.3325 4.59281 41.0385
5.27826 4.59212 41.046
5.22397 4.59143 41.0535
5.09835 4.58654 40.9614
5.04408 4.58584 40.9685
4.98977 4.58513 40.9754
4.93542 4.58441 40.9823
4.48088 4.54746 40.8315
4.41895 4.54503 40.7848
4.31015 4.54348 40.796
4.25571 4.5427 40.8015
4.20123 4.54192 40.8068
4.03061 4.53789 40.7699
3.96916 4.53544 40.7225
3.91466 4.53464 40.7272
3.86013 4.53383 40.7319
3.80556 4.53301 40.7365
3.19773 4.49452 40.6339
3.13726 4.49208 40.5856
3.07691 4.48964 40.5371
2.96771 4.48786 40.5431
2.91308 4.48697 40.546
2.85842 4.48607 40.5487
2.74904 4.48427 40.5538
2.36296 4.44874 40.4251
2.30831 4.44779 40.4267
2.25365 4.44684 40.4283
2.19897 4.44588 40.4298
2.14428 4.44492 40.4312
2.08957 4.44396 40.4324
7.78498 4.64264 41.4576
7.48859 4.66942 41.6903
7.22852 4.63382 41.4702
7.17498 4.63328 41.4818
7.12138 4.63275 41.4933
6.93802 4.6274 41.4169
6.88433 4.62685 41.4278
6.83058 4.62629 41.4386
6.75602 4.60913 41.3173
6.70233 4.60855 41.3278
6.64859 4.60797 41.3382
6.59579 4.59444 41.3261
6.5315 4.59206 41.2819
6.4673 4.58968 41.2377
6.35968 4.58846 41.2573
6.30579 4.58784 41.267
6.25185 4.58722 41.2765
6.07005 4.5818 41.1962
6.01604 4.58116 41.2052
5.4409 4.54173 41.0305
5.38673 4.54102 41.0382
5.27827 4.5396 41.0533
5.21537 4.53721 41.0075
5.04406 4.53337 40.9756
4.98974 4.53264 40.9825
4.93538 4.5319 40.9893
4.75609 4.52636 40.903
4.25558 4.49027 40.8081
4.20109 4.48947 40.8134
4.03045 4.48545 40.7764
3.96899 4.48305 40.7289
3.91448 4.48223 40.7337
3.85994 4.4814 40.7383
3.80538 4.48057 40.7429
3.75078 4.47973 40.7473
3.6415 4.47804 40.7558
3.58322 4.46267 40.6868
3.52229 4.4603 40.6389
3.47054 4.44649 40.6221
3.41313 4.45856 40.6466
3.3614 4.44473 40.6295
3.30678 4.44385 40.6331
3.25214 4.44296 40.6365
3.19748 4.44207 40.6399
3.137 4.43968 40.5915
3.07664 4.43729 40.5431
2.96743 4.43548 40.549
2.91279 4.43457 40.5518
2.85813 4.43366 40.5545
7.79778 4.59198 41.522
7.69144 4.59093 41.5476
7.41266 4.58643 41.5539
7.35916 4.58588 41.5659
7.30559 4.58532 41.5777
7.22889 4.58118 41.479
7.17534 4.58062 41.4905
7.12173 4.58005 41.5019
6.59603 4.54185 41.3343
6.53173 4.53952 41.2901
6.46752 4.53718 41.2458
6.35988 4.5359 41.2654
6.30598 4.53526 41.275
6.25203 4.53461 41.2845
6.07019 4.52926 41.204
6.01618 4.52859 41.213
5.96212 4.52792 41.2219
5.88887 4.5239 41.1229
5.21537 4.48472 41.0147
5.04403 4.48088 40.9828
4.9897 4.48013 40.9896
4.93534 4.47937 40.9964
4.76401 4.47548 40.963
4.70377 4.46024 40.8948
4.59716 4.44575 40.8857
4.54274 4.44494 40.8917
4.48068 4.44262 40.845
4.41872 4.44029 40.7982
4.3099 4.43865 40.8093
4.25544 4.43783 40.8147
4.20095 4.437 40.82
4.03028 4.43299 40.7829
3.80518 4.4281 40.7492
3.41575 4.39322 40.632
3.36116 4.39232 40.6356
3.30654 4.39141 40.6392
3.2519 4.3905 40.6426
3.19723 4.38959 40.6459
3.13674 4.38726 40.5975
3.07637 4.38493 40.549
3.02177 4.38401 40.552
2.96715 4.38308 40.5549
2.9125 4.38215 40.5577
2.85784 4.38122 40.5604
2.51945 4.37276 40.4715
7.78598 4.53767 41.476
7.70408 4.54002 41.612
7.41308 4.53371 41.5628
7.35956 4.53313 41.5747
7.30598 4.53254 41.5865
7.22927 4.52852 41.4877
7.1757 4.52793 41.4992
7.12208 4.52733 41.5106
7.0459 4.52333 41.4119
6.93864 4.52211 41.4339
6.88493 4.5215 41.4448
6.83116 4.52088 41.4555
6.41393 4.48399 41.2638
6.36008 4.48332 41.2735
6.30617 4.48265 41.2831
6.24215 4.48036 41.2384
6.1243 4.47738 41.2028
6.07033 4.47669 41.2119
6.01631 4.476 41.2209
5.96224 4.4753 41.2297
5.88897 4.4714 41.1306
5.83495 4.4707 41.1392
5.78088 4.46999 41.1477
5.67416 4.45569 41.1423
5.60325 4.43901 41.0217
5.49511 4.43752 41.0375
5.44097 4.43677 41.0453
5.38679 4.43602 41.053
5.2783 4.4345 41.0679
5.21537 4.43221 41.022
5.044 4.42837 40.9899
4.98967 4.42759 40.9968
4.4186 4.38788 40.805
4.30977 4.3862 40.816
4.2553 4.38535 40.8214
4.2008 4.3845 40.8266
4.03012 4.38051 40.7894
3.96864 4.37822 40.7419
3.91412 4.37735 40.7466
3.85957 4.37648 40.7512
3.80499 4.3756 40.7556
3.75038 4.37473 40.76
3.64107 4.37296 40.7684
2.91221 4.32971 40.5636
2.85754 4.32876 40.5662
2.6934 4.32589 40.5735
2.51911 4.32034 40.4772
2.35851 4.3045 40.4622
2.30382 4.30351 40.4638
2.24911 4.30252 40.4653
2.19439 4.30152 40.4666
2.13965 4.30052 40.4679
2.08129 4.31245 40.4895
2.0265 4.31145 40.4905
7.78648 4.48515 41.4853
7.22964 4.47584 41.4965
7.17607 4.47521 41.508
7.12243 4.47458 41.5193
7.04623 4.4707 41.4205
6.93895 4.46943 41.4425
6.88523 4.46878 41.4533
6.8214 4.45367 41.3864
6.75683 4.45145 41.3424
6.70312 4.45078 41.3529
6.64934 4.45011 41.3631
6.59652 4.43659 41.3508
6.53219 4.43435 41.3066
6.46795 4.43211 41.2621
6.41413 4.43142 41.2719
6.36027 4.43072 41.2816
6.30635 4.43002 41.2911
6.24232 4.42777 41.2464
6.12444 4.42482 41.2108
6.07046 4.4241 41.2198
5.49515 4.38504 41.045
5.441 4.38426 41.0527
5.38681 4.38348 41.0604
5.2783 4.38191 41.0752
5.21537 4.37967 41.0293
5.15253 4.37744 40.9832
5.09827 4.37664 40.9902
5.04397 4.37584 40.9971
4.98963 4.37503 41.0039
4.93524 4.37422 41.0106
4.76387 4.37035 40.977
4.20066 4.33199 40.8333
4.02995 4.328 40.7959
3.96845 4.32577 40.7484
3.91393 4.32488 40.753
3.85937 4.32399 40.7576
3.80479 4.32309 40.762
3.75017 4.32219 40.7664
3.57338 4.31681 40.6745
3.51879 4.3159 40.6784
3.46985 4.28929 40.6406
3.41528 4.28835 40.6443
3.36067 4.28742 40.6479
3.30604 4.28647 40.6514
3.1362 4.28236 40.6096
3.07581 4.28013 40.561
2.96657 4.27821 40.5668
2.91192 4.27725 40.5695
2.85724 4.27628 40.5721
7.86478 4.43636 41.5922
7.78698 4.43259 41.4945
7.69288 4.43293 41.5751
7.41391 4.42818 41.5807
7.36037 4.42754 41.5925
7.23001 4.42312 41.5053
7.17643 4.42246 41.5167
7.12278 4.4218 41.528
6.59676 4.38392 41.3591
6.53242 4.38173 41.3148
6.46816 4.37954 41.2704
6.41434 4.37881 41.2801
6.36046 4.37809 41.2897
6.30653 4.37736 41.2992
6.24249 4.37516 41.2545
6.12459 4.37223 41.2187
6.0706 4.37148 41.2277
6.01656 4.37074 41.2366
5.96248 4.36998 41.2454
5.88917 4.36634 41.1462
5.78104 4.36482 41.1631
5.21536 4.32711 41.0366
5.15251 4.32492 40.9904
5.09824 4.3241 40.9974
5.04393 4.32328 41.0043
4.98958 4.32245 41.0111
4.93519 4.32162 41.0177
4.75578 4.31639 40.9309
4.70352 4.30275 40.9157
4.64694 4.3147 40.9432
4.54244 4.28735 40.9122
4.48035 4.28518 40.8654
4.41836 4.283 40.8185
4.36394 4.28212 40.824
4.3095 4.28124 40.8294
4.25502 4.28035 40.8347
4.20051 4.27945 40.8399
4.02277 4.2742 40.7502
3.96827 4.27329 40.7549
3.91374 4.27238 40.7595
3.85918 4.27147 40.7641
3.80458 4.27056 40.7685
3.13012 4.22868 40.564
3.07553 4.22771 40.567
2.96628 4.22575 40.5727
2.91162 4.22477 40.5754
2.85694 4.22378 40.578
2.69277 4.2208 40.5851
2.57309 4.21646 40.4867
2.51843 4.21545 40.4886
2.02574 4.20628 40.5015
7.78747 4.38001 41.5038
7.68117 4.37871 41.529
7.41433 4.37538 41.5897
7.36077 4.3747 41.6015
7.23038 4.37037 41.5142
7.17678 4.36969 41.5255
7.12313 4.369 41.5368
7.04688 4.36537 41.4379
6.99325 4.36467 41.4488
6.93956 4.36397 41.4597
6.88581 4.36327 41.4704
6.46837 4.32693 41.2786
6.41453 4.32618 41.2883
6.36065 4.32543 41.2978
6.30671 4.32467 41.3073
6.24265 4.32252 41.2625
6.12473 4.31961 41.2267
6.07073 4.31884 41.2357
6.01668 4.31807 41.2445
5.96259 4.31729 41.2532
5.88926 4.31377 41.154
5.78112 4.3122 41.1708
5.72697 4.31141 41.1791
5.67436 4.29784 41.1652
5.49522 4.27999 41.06
5.44105 4.27916 41.0677
5.38685 4.27833 41.0752
5.20672 4.27323 40.9907
5.15248 4.27239 40.9977
5.09821 4.27154 41.0047
5.04389 4.27069 41.0115
4.98953 4.26984 41.0183
4.47261 4.23143 40.8197
4.41823 4.23053 40.8253
4.30936 4.22872 40.8362
4.25487 4.22781 40.8414
4.19314 4.22569 40.7943
4.02959 4.22293 40.8091
3.96808 4.2208 40.7615
3.91354 4.21987 40.766
3.85897 4.21894 40.7705
3.80438 4.218 40.7749
3.74975 4.21706 40.7792
3.5183 4.2109 40.691
2.91132 4.17227 40.5814
2.85121 4.17016 40.5326
2.69245 4.16823 40.5909
2.57275 4.164 40.4925
2.51809 4.16298 40.4944
2.4634 4.16196 40.4962
2.35399 4.1599 40.4995
2.29925 4.15887 40.501
2.24804 4.145 40.482
2.1933 4.14396 40.4833
2.13855 4.14291 40.4845
2.08016 4.15471 40.506
2.02536 4.15366 40.507
7.78797 4.3274 41.5131
7.54484 4.35238 41.7325
7.23074 4.3176 41.523
7.17714 4.31688 41.5344
7.12347 4.31616 41.5456
7.0472 4.31266 41.4466
6.99356 4.31193 41.4575
6.93986 4.3112 41.4683
6.8861 4.31047 41.479
6.82224 4.2956 41.4119
6.75763 4.29351 41.3678
6.70388 4.29276 41.3781
6.65008 4.29201 41.3883
6.59723 4.27849 41.3758
6.53286 4.2764 41.3314
6.46857 4.2743 41.2868
6.41473 4.27353 41.2965
6.36083 4.27274 41.306
6.30689 4.27196 41.3154
6.24281 4.26986 41.2706
6.17882 4.26776 41.2256
6.12487 4.26697 41.2347
6.07086 4.26617 41.2436
6.0168 4.26537 41.2524
5.9627 4.26457 41.2611
5.44108 4.22657 41.0752
5.38686 4.22572 41.0827
5.2067 4.2207 40.998
5.15245 4.21983 41.0051
5.09817 4.21896 41.012
5.04385 4.21809 41.0188
4.98949 4.21721 41.0255
4.93508 4.21633 41.0321
4.75561 4.21127 40.945
4.02941 4.17035 40.8157
3.96789 4.16828 40.768
3.91334 4.16733 40.7726
3.85877 4.16638 40.777
3.80417 4.16542 40.7814
3.74292 4.16335 40.7335
3.57266 4.15934 40.6935
3.51806 4.15837 40.6973
3.46628 4.14465 40.6802
3.41165 4.14366 40.6838
3.357 4.14267 40.6872
3.30232 4.14168 40.6906
3.13537 4.12484 40.6277
3.07495 4.12279 40.5791
3.02033 4.12178 40.5819
2.96568 4.12076 40.5847
2.91101 4.11974 40.5873
2.85089 4.11769 40.5385
2.69212 4.11564 40.5968
7.78846 4.27476 41.5225
7.68211 4.27332 41.5474
7.54528 4.29935 41.7416
7.41515 4.26968 41.6077
7.36157 4.26894 41.6194
7.23111 4.2648 41.5319
7.17749 4.26405 41.5432
7.12382 4.2633 41.5544
6.59747 4.22574 41.3841
6.53308 4.2237 41.3397
6.46877 4.22165 41.2951
6.41492 4.22084 41.3047
6.36102 4.22003 41.3142
6.30706 4.21922 41.3236
6.24297 4.21717 41.2787
6.17897 4.21512 41.2337
6.125 4.2143 41.2427
6.07099 4.21348 41.2516
6.01692 4.21265 41.2604
5.95314 4.2106 41.2151
5.20667 4.16814 41.0054
5.15242 4.16725 41.0124
5.09813 4.16635 41.0193
5.0438 4.16546 41.026
4.98943 4.16456 41.0327
4.93502 4.16365 41.0392
4.75552 4.15867 40.9521
4.70109 4.15776 40.9582
4.64663 4.15684 40.9642
4.53761 4.155 40.9758
4.47771 4.14022 40.9072
4.41565 4.13822 40.8602
4.36353 4.12457 40.8444
4.30907 4.12362 40.8497
4.25457 4.12266 40.8549
4.19281 4.12065 40.8077
4.02221 4.11671 40.77
3.96769 4.11574 40.7746
3.91314 4.11477 40.7791
3.85856 4.1138 40.7836
3.80395 4.11282 40.7879
3.12927 4.07133 40.5822
3.07466 4.0703 40.5851
3.02003 4.06927 40.588
2.96538 4.06824 40.5907
2.9107 4.0672 40.5933
2.85058 4.0652 40.5445
2.6918 4.06303 40.6026
2.57206 4.05902 40.504
2.35326 4.0548 40.5109
2.29852 4.05373 40.5123
2.24376 4.05266 40.5137
2.1342 4.05052 40.5161
2.0794 4.04945 40.5171
2.02458 4.04837 40.518
7.86685 4.22536 41.6298
7.78895 4.22208 41.5318
7.68258 4.22059 41.5567
7.41556 4.21678 41.6168
7.36197 4.21601 41.6284
7.23147 4.21197 41.5408
7.17784 4.21119 41.552
7.1128 4.20918 41.5081
7.04784 4.20716 41.4641
6.99418 4.20637 41.4749
6.94046 4.20558 41.4856
6.88668 4.20479 41.4962
6.46897 4.16897 41.3034
6.41511 4.16813 41.313
6.3612 4.16729 41.3224
6.30724 4.16645 41.3318
6.24313 4.16446 41.2868
6.17911 4.16246 41.2418
6.12513 4.16161 41.2507
6.07111 4.16076 41.2596
6.01704 4.1599 41.2683
5.95324 4.1579 41.223
5.88953 4.1559 41.1776
5.83546 4.15504 41.1859
5.78133 4.15417 41.1942
5.72716 4.15331 41.2023
5.67454 4.13976 41.1883
5.49361 4.13489 41.1044
