9.02535 7.59554 44.6797
8.76356 7.5261 44.277
8.69258 7.52083 44.2286
8.59142 7.46998 43.9958
8.50665 7.45803 43.8825
8.11577 7.35004 43.3518
7.95155 7.29641 43.0837
7.88326 7.29146 43.0374
7.81514 7.2558 42.9417
7.57464 7.19253 42.5736
7.49525 7.18176 42.4683
7.44046 7.18289 42.4826
7.28384 7.13153 42.2264
7.20672 7.09122 42.0763
7.14072 7.08655 42.0318
6.8461 7.02167 41.6369
6.77026 7.01159 41.5364
6.70703 6.97789 41.4481
6.64243 6.97334 41.4045
6.59016 6.94508 41.3717
6.51539 6.93528 41.2729
6.31527 6.8878 41.0443
6.24176 6.87822 40.947
6.18814 6.87891 40.9581
6.13447 6.8796 40.9691
6.08075 6.88027 40.98
6.02697 6.88093 40.9907
5.4098 6.93793 41.3732
5.26272 6.95011 41.5116
5.16632 6.99143 41.686
5.07258 7.0033 41.8165
4.71078 7.05866 42.148
4.45591 7.11387 42.4647
3.87512 7.22695 43.1099
3.81711 7.22721 43.1155
3.32053 7.33014 43.6288
3.2152 7.34317 43.7642
3.10918 7.35621 43.8998
2.82873 7.41548 44.2251
2.42273 7.47551 44.557
2.31192 7.48896 44.6944
1.73189 7.67546 45.6839
1.36525 7.73895 46.0207
0.992848 7.80309 46.3573
0.92959 7.8027 46.3557
0.809028 7.81736 46.4989
0.687718 7.83204 46.6423
0.112399 7.89533 46.9684
-0.0226138 7.9471 47.1663
-0.21301 7.96142 47.3061
-0.867433 8.04094 47.7718
-0.997485 8.05606 47.9162
-1.46905 8.1218 48.2395
-1.60219 8.13709 48.3842
-1.68041 8.17475 48.4323
-2.29802 8.25684 48.8962
-3.06751 8.35525 49.5023
-3.20881 8.37105 49.6483
-3.27582 8.36943 49.6353
-3.56713 8.42258 49.8126
-3.7107 8.4385 49.9585
-4.51218 8.53828 50.5562
-5.17997 8.6225 51.0027
-5.41645 8.67914 51.1908
9.62485 7.71294 45.5567
9.56778 7.71494 45.5775
9.14755 7.59886 45.0002
9.02625 7.53939 44.6891
8.88251 7.52872 44.5904
8.76439 7.47045 44.2862
8.69339 7.46523 44.2377
8.6068 7.42139 44.0705
8.36658 7.36115 43.7444
8.28287 7.34957 43.6325
8.11643 7.29552 43.3603
8.04741 7.27502 43.2881
7.79004 7.18968 42.8277
7.735 7.19088 42.8427
7.65467 7.18001 42.7359
7.49577 7.12834 42.4763
7.36274 7.08884 42.3383
7.14117 7.03365 42.0395
7.06385 7.02343 41.9371
6.99814 7.01879 41.8925
6.84648 6.96926 41.6443
6.77209 6.93019 41.4991
6.71809 6.93102 41.5114
6.56955 6.88254 41.2683
6.24203 6.82663 40.9541
6.18841 6.82729 40.9651
6.13473 6.82794 40.9761
6.081 6.82858 40.9869
6.02721 6.82921 40.9976
5.40997 6.88548 41.3796
5.31789 6.89692 41.509
5.07272 6.9501 41.8228
4.45599 7.05954 42.4707
4.08188 7.11558 42.8019
3.97647 7.15909 42.9817
3.87516 7.17151 43.1155
3.60655 7.22851 43.4373
3.10917 7.29939 43.9051
3.04976 7.29948 43.9089
2.93967 7.32868 44.0691
2.8287 7.35811 44.2303
1.73182 7.61563 45.6886
1.36516 7.67852 46.0252
1.24696 7.69277 46.1679
1.18399 7.69243 46.167
0.992749 7.74206 46.3617
0.929487 7.74166 46.3601
0.808932 7.75607 46.5032
0.428148 7.82035 46.839
0.364206 7.81979 46.8359
-0.213128 7.89865 47.3099
-0.404641 7.91263 47.449
-0.47477 7.93053 47.4712
-0.608316 7.96413 47.6431
-1.46917 8.0573 48.2429
-2.23178 8.19245 48.9096
-3.0676 8.28843 49.5051
-3.20887 8.30397 49.6509
-3.56722 8.35516 49.8153
-3.71076 8.37083 49.9611
-3.85508 8.38651 50.107
-3.92242 8.38468 50.0922
-4.36484 8.45367 50.4124
-6.09855 8.69343 51.6319
9.6246 7.63905 45.5381
9.56756 7.64099 45.5588
9.49367 7.63543 45.5076
9.4199 7.62994 45.4566
8.76521 7.41478 44.2954
8.60758 7.36597 44.0795
8.50817 7.34769 43.9004
8.28329 7.27907 43.6156
8.18618 7.24594 43.416
7.89751 7.18926 43.116
7.73557 7.13697 42.851
7.65522 7.12624 42.7441
7.57571 7.0854 42.5897
7.49628 7.07489 42.4844
7.4179 7.03454 42.3322
7.36324 7.03555 42.3462
7.28478 7.02523 42.2421
7.13007 6.9752 41.9893
7.06427 6.97063 41.9448
6.99915 6.95133 41.8771
6.92311 6.92671 41.7528
6.70775 6.8735 41.4629
6.64311 6.86904 41.4191
6.44161 6.82178 41.1889
6.31585 6.78435 41.0584
6.2423 6.77501 40.9611
6.18867 6.77565 40.9721
6.13498 6.77627 40.983
6.08124 6.77688 40.9938
6.02745 6.77747 41.0044
5.82916 6.80417 41.1766
5.66776 6.79135 41.1846
5.61342 6.79186 41.1943
5.41013 6.833 41.3862
5.07286 6.89688 41.8291
4.80688 6.93947 42.0293
4.61026 6.99304 42.3374
4.55368 6.9934 42.3447
4.45607 7.00519 42.4766
4.08193 7.06065 42.8077
3.87519 7.11605 43.1212
3.60657 7.17251 43.4428
3.21518 7.22998 43.7749
3.10916 7.24256 43.9104
2.82867 7.30072 44.2354
1.36508 7.61808 46.0297
1.24688 7.63208 46.1724
0.929382 7.6806 46.3645
0.808834 7.69476 46.5074
0.68754 7.70895 46.6507
0.428036 7.75844 46.8431
0.364092 7.75787 46.84
-0.0228654 7.82207 47.1742
-0.213247 7.83587 47.3138
-0.867674 7.91364 47.779
-1.00347 7.94724 47.9511
-1.68068 8.04505 48.439
-2.79362 8.20934 49.3862
-3.5673 8.28774 49.8179
-3.71083 8.30314 49.9636
-4.36487 8.38513 50.4147
-4.51219 8.40068 50.5606
-4.88002 8.45186 50.7151
-5.41642 8.53917 51.1947
9.20616 7.48395 45.0001
9.02804 7.42701 44.708
8.97153 7.42864 44.7267
8.85236 7.3709 44.4203
8.76604 7.35908 44.3046
8.70983 7.3606 44.3225
8.59376 7.30401 44.0229
8.52335 7.29897 43.9748
8.43837 7.27173 43.8354
8.36803 7.25109 43.762
7.88508 7.129 43.0625
7.80406 7.0878 42.9054
7.73614 7.08304 42.8592
7.28526 6.97205 42.25
7.20764 6.94712 42.123
7.13051 6.92234 41.997
6.92351 6.87413 41.7603
6.7081 6.82128 41.4703
6.64346 6.81687 41.4265
6.58069 6.78364 41.3382
6.31614 6.7326 41.0655
6.24257 6.72338 40.9682
6.18893 6.72398 40.9791
6.13524 6.72457 40.99
6.08149 6.72515 41.0007
6.02769 6.72572 41.0114
5.41029 6.78051 41.3927
5.31821 6.79152 41.5219
5.26318 6.79194 41.5308
5.16674 6.83243 41.7051
5.07299 6.84364 41.8354
4.45614 6.95083 42.4826
4.35787 6.96243 42.6148
3.87522 7.06058 43.1269
3.21516 7.17336 43.7803
2.82864 7.24331 44.2406
1.61157 7.52697 45.8661
1.36499 7.55762 46.0343
0.992542 7.61997 46.3705
0.929274 7.61953 46.3688
0.808733 7.63345 46.5117
0.427922 7.69652 46.8473
0.363975 7.69594 46.8442
0.107054 7.72702 47.0074
-0.0229943 7.75954 47.1782
-0.213368 7.77307 47.3177
-0.608576 7.83735 47.6506
-0.867797 7.84997 47.7826
-1.4694 7.92826 48.2496
-1.61491 7.98133 48.4509
-1.68082 7.98019 48.4423
-2.23203 8.06103 48.9159
-2.29839 8.0597 48.9056
-2.79373 8.14276 49.3891
-3.06778 8.15476 49.5106
-3.21627 8.18994 49.6856
-3.56739 8.2203 49.8206
-4.3649 8.31658 50.417
-4.88004 8.38273 50.7173
-5.02956 8.39813 50.8628
-5.19701 8.45581 51.0692
-5.4164 8.46918 51.1966
9.33077 7.48651 45.3262
9.02894 7.37079 44.7175
8.76686 7.30335 44.3139
8.68097 7.29172 44.1986
8.60916 7.25507 44.0977
8.53855 7.25004 44.0492
8.03605 7.12095 43.2762
7.95404 7.07957 43.1174
7.79179 7.02801 42.8526
7.73672 7.02909 42.8675
7.43037 6.96332 42.4551
7.36386 6.9438 42.3857
7.28573 6.91885 42.2579
7.13095 6.86946 42.0048
7.06512 6.86498 41.9602
6.92391 6.82153 41.7679
6.84762 6.8119 41.6669
6.77319 6.77339 41.5214
6.70845 6.76904 41.4777
6.58103 6.73154 41.3455
6.44221 6.71795 41.2033
6.24284 6.67173 40.9752
6.18919 6.6723 40.9862
6.13549 6.67286 40.997
6.08173 6.6734 41.0077
6.02792 6.67394 41.0183
5.41045 6.728 41.3992
5.16688 6.77939 41.7115
5.07312 6.79038 41.8417
4.61043 6.8848 42.3496
4.55384 6.8851 42.3569
4.45622 6.89645 42.4886
3.87525 7.00509 43.1326
3.60659 7.06045 43.454
3.54799 7.06057 43.4589
3.21514 7.11672 43.7857
2.93643 7.17356 44.1094
2.82861 7.18589 44.2458
1.3649 7.49715 46.0388
1.24671 7.51066 46.1813
1.1794 7.52794 46.2068
0.427806 7.63459 46.8514
0.363856 7.634 46.8483
-0.148905 7.71101 47.3262
-0.213492 7.71026 47.3216
-0.410371 7.74203 47.4879
-0.480585 7.75979 47.5102
-0.608709 7.77395 47.6544
-1.07492 7.83724 47.9794
-2.23215 7.9953 48.919
-2.29852 7.99397 48.9087
-2.79384 8.07617 49.392
-3.06787 8.08791 49.5134
-3.56747 8.15286 49.8232
-3.93806 8.22171 50.1589
-4.88006 8.31359 50.7194
-5.41638 8.39918 51.1985
9.6278 7.4673 45.5685
9.57071 7.46909 45.589
9.49676 7.46368 45.5376
9.42179 7.44185 45.4581
9.36462 7.44356 45.4779
9.15128 7.37235 45.0386
9.02984 7.31453 44.727
8.8845 7.2722 44.5734
8.76769 7.2476 44.3232
8.60994 7.19958 44.1068
8.51044 7.182 43.9275
8.28568 7.12991 43.6676
8.20189 7.08804 43.5053
8.11908 7.07723 43.3948
7.95466 7.0253 43.1259
7.65688 6.96479 42.7688
7.5771 6.93952 42.6381
7.49783 6.91442 42.5086
7.36471 6.87555 42.37
7.2862 6.86562 42.2658
7.13139 6.81656 42.0126
7.06555 6.81212 41.968
7.001 6.77844 41.877
6.92431 6.7689 41.7756
6.77356 6.72108 41.5289
6.70881 6.71677 41.4852
6.4963 6.66539 41.1991
6.44252 6.666 41.2106
6.37039 6.62847 41.0685
6.3167 6.62904 41.0798
6.2431 6.62006 40.9823
6.13574 6.62112 41.004
6.08197 6.62164 41.0147
6.02816 6.62214 41.0252
5.82847 6.66224 41.2189
5.72265 6.63448 41.1949
5.66834 6.63491 41.2047
5.61398 6.63533 41.2143
5.46537 6.67507 41.3966
5.07325 6.73711 41.8481
4.71127 6.78952 42.1786
3.87528 6.94958 43.1383
3.548 7.00449 43.4644
2.82857 7.12845 44.251
2.48298 7.18561 44.5798
1.67794 7.38956 45.849
0.808525 7.51077 46.5204
0.682565 7.54217 46.6904
0.427688 7.57264 46.8556
0.363734 7.57204 46.8525
0.10176 7.62069 47.0426
-0.0232584 7.63444 47.1863
-0.149028 7.6482 47.3302
-0.213617 7.64744 47.3255
-0.608844 7.71053 47.6581
-0.868049 7.7226 47.7899
-1.00967 7.7742 47.99
-1.07506 7.77321 47.983
-1.61519 7.85158 48.4577
-1.68109 7.85043 48.4491
-1.81538 7.86464 48.5939
-2.23228 7.92955 48.9222
-2.29865 7.92822 48.9119
-2.58788 7.99644 49.2605
-2.65459 7.99501 49.2491
-2.79395 8.00957 49.3949
-2.86076 8.00808 49.383
-3.56756 8.08541 49.8258
-4.21849 8.16471 50.2762
-4.36496 8.17946 50.4216
-4.52857 8.23569 50.6275
-5.41636 8.32917 51.2005
9.33274 7.37241 45.346
9.209 7.31409 45.0292
9.11956 7.28607 44.8822
9.03074 7.25825 44.7366
8.97418 7.25974 44.7551
8.85491 7.20322 44.4483
8.76852 7.19183 44.3325
8.5961 7.13782 44.0502
8.51119 7.12672 43.9365
8.44059 7.10621 43.8623
8.3702 7.08582 43.7886
8.1889 7.02736 43.4508
8.11974 7.0226 43.4035
7.95528 6.971 43.1345
7.87383 6.9606 43.026
7.80583 6.92574 42.9305
7.73786 6.92112 42.8841
7.57786 6.87087 42.6223
7.49835 6.86088 42.5168
7.28667 6.81238 42.2738
7.20948 6.77322 42.1231
7.13183 6.76363 42.0204
6.9247 6.71626 41.7832
6.69844 6.65956 41.4367
6.64447 6.66021 41.4487
6.57119 6.62247 41.3048
6.4966 6.61346 41.2064
6.24337 6.56837 40.9895
6.1897 6.56887 41.0003
6.13598 6.56937 41.0111
6.08221 6.56985 41.0217
6.02839 6.57032 41.0322
5.46553 6.62254 41.4033
5.31538 6.66236 41.5859
5.26026 6.66272 41.5947
5.16714 6.67325 41.7244
4.45636 6.78763 42.5007
4.35355 6.82908 42.6793
3.8753 6.89406 43.144
3.54799 6.9484 43.47
2.48292 7.12757 44.5848
2.36881 7.15628 44.7472
1.95013 7.23053 45.1034
1.60725 7.36384 45.9064
1.42748 7.37654 46.0486
1.05549 7.43718 46.3853
0.808417 7.44941 46.5247
0.427568 7.51069 46.8598
0.363611 7.51007 46.8567
-0.0233935 7.57187 47.1903
-0.149153 7.58538 47.3341
-0.416052 7.63427 47.5233
-0.48088 7.63344 47.5179
-0.60898 7.6471 47.6619
-1.48198 7.77271 48.3162
-1.61533 7.78669 48.4611
-1.68123 7.78553 48.4525
-2.79405 7.94297 49.3979
-2.86087 7.94147 49.3859
-3.06804 7.95419 49.519
-3.22387 8.00851 49.7234
-3.93822 8.0856 50.164
-4.15112 8.0983 50.2943
-4.21854 8.0964 50.2786
-4.8801 8.17529 50.7237
-5.02953 8.1899 50.8689
-5.41634 8.25916 51.2024
-5.94381 8.32428 51.4947
9.03164 7.20195 44.7462
8.85576 7.14727 44.4577
8.76934 7.13602 44.3418
8.68338 7.12482 44.2264
8.61152 7.08853 44.1251
8.42673 7.02949 43.781
8.37093 7.03068 43.7976
8.20326 6.97847 43.5228
7.9559 6.91668 43.143
7.90056 6.91771 43.1583
7.80642 6.87167 42.9389
7.73843 6.8671 42.8925
7.5784 6.81718 42.6305
7.49886 6.80732 42.5249
7.44464 6.77848 42.4908
7.36569 6.76877 42.3861
7.20993 6.72014 42.131
7.13226 6.71068 42.0282
7.06639 6.70634 41.9835
6.9251 6.66359 41.7909
6.84875 6.65434 41.6897
6.77429 6.61639 41.544
6.70951 6.61217 41.5002
6.57152 6.57039 41.3122
6.49691 6.5615 41.2137
6.29725 6.51617 40.9856
6.24363 6.51665 40.9966
6.18996 6.51712 41.0074
6.13623 6.51759 41.0182
6.08245 6.51804 41.0288
6.02862 6.51848 41.0392
5.52042 6.56965 41.4007
5.46569 6.57 41.4099
5.16727 6.62016 41.7309
5.0735 6.63049 41.8609
4.61066 6.72229 42.368
4.45643 6.7332 42.5067
3.87532 6.83852 43.1498
3.54799 6.89228 43.4756
1.95003 7.17157 45.1083
1.61533 7.26894 45.8584
1.42738 7.31605 46.0532
1.23781 7.36354 46.248
1.17474 7.36311 46.2469
1.05538 7.37608 46.3898
0.427445 7.44871 46.864
0.363485 7.44808 46.8608
-0.0235307 7.50928 47.1943
-0.14928 7.52255 47.338
-0.213874 7.52177 47.3333
-0.4162 7.57109 47.5272
-0.48103 7.57025 47.5218
-0.609119 7.58365 47.6657
-1.00996 7.64612 47.9973
-1.07536 7.64512 47.9903
-1.61546 7.72178 48.4645
-1.68137 7.72062 48.4559
-1.81563 7.73432 48.6005
-2.58814 7.86374 49.2666
-2.65485 7.8623 49.2552
-2.86098 7.87485 49.3888
-3.56773 7.95047 49.8311
-4.15118 8.02997 50.2968
-4.52867 8.09786 50.6321
-4.88012 8.10613 50.7259
-5.41632 8.18913 51.2044
-5.94377 8.25368 51.4965
9.68805 7.29364 45.5786
9.63101 7.2953 45.5991
9.57262 7.2805 45.5905
9.49986 7.29169 45.5678
9.42482 7.27013 45.488
9.03254 7.14561 44.7558
8.85661 7.0913 44.4671
8.6123 7.03296 44.1342
8.42747 6.97436 43.79
8.37165 6.97552 43.8065
8.12106 6.91326 43.4209
7.96976 6.86793 43.2138
7.73901 6.81305 42.9009
7.65853 6.80312 42.7937
7.57893 6.76346 42.6388
7.36618 6.71535 42.3941
7.28761 6.70581 42.2898
7.1327 6.6577 42.0361
7.06681 6.65341 41.9914
7.00162 6.63458 41.9233
6.92549 6.6109 41.7986
6.77465 6.56402 41.5515
6.70985 6.55984 41.5077
6.64514 6.55566 41.4637
6.49721 6.50953 41.2211
6.44341 6.51004 41.2325
6.37125 6.47306 41.0902
6.31754 6.47353 41.1013
6.24389 6.46492 41.0038
6.19021 6.46536 41.0146
6.13647 6.46579 41.0253
6.08269 6.46621 41.0358
6.02885 6.46662 41.0462
5.82907 6.5057 41.2396
5.77477 6.50609 41.2495
5.6689 6.47829 41.2249
5.52058 6.51712 41.4074
5.46585 6.51744 41.4166
4.61074 6.66809 42.3742
3.27424 6.89005 43.8034
2.65296 7.00003 44.4558
2.25363 7.06801 44.9206
1.83616 7.12456 45.2516
1.49006 7.25593 46.0584
1.42729 7.25554 46.0579
1.05527 7.31497 46.3943
0.803596 7.34439 46.5602
0.677502 7.37505 46.7305
-0.0236701 7.44669 47.1984
-0.149408 7.4597 47.342
-0.481182 7.50704 47.5257
-0.609259 7.52019 47.6695
-1.01011 7.58207 48.001
-1.07551 7.58106 47.9939
-1.48229 7.6434 48.3233
-1.61561 7.65687 48.468
-1.68152 7.6557 48.4593
-1.81575 7.66914 48.6038
-2.44989 7.78355 49.1239
-2.65498 7.79593 49.2582
-3.22408 7.87407 49.7291
-3.50069 7.88469 49.8477
-4.15123 7.96164 50.2992
-4.21865 7.95975 50.2834
-4.38122 8.01471 50.4885
-4.52872 8.02892 50.6344
-5.41629 8.1191 51.2063
-5.94373 8.18307 51.4983
-6.01165 8.18065 51.4773
9.6878 7.21993 45.56
9.63078 7.22152 45.5805
9.57368 7.2231 45.6007
9.42584 7.21283 45.498
9.03344 7.08925 44.7654
8.85747 7.0353 44.4765
8.771 7.02434 44.3605
8.59845 6.9714 44.0777
8.51346 6.96072 43.9639
8.37238 6.92033 43.8155
8.19093 6.86317 43.4772
8.12172 6.85855 43.4297
7.95714 6.80797 43.1602
7.87563 6.79798 43.0515
7.80759 6.76346 42.9558
7.73958 6.75898 42.9093
7.57946 6.70973 42.647
7.49989 6.70013 42.5413
7.28808 6.65249 42.2978
7.21084 6.61392 42.1469
7.13313 6.60471 42.044
6.92588 6.55819 41.8063
6.77501 6.51162 41.5591
6.7102 6.50749 41.5152
6.64547 6.50335 41.4712
6.57216 6.46617 41.3271
6.3078 6.41719 41.0543
6.24415 6.41316 41.011
6.19046 6.41357 41.0217
6.13672 6.41397 41.0324
6.08292 6.41436 41.0429
6.02907 6.41474 41.0533
5.52074 6.46456 41.4141
5.466 6.46486 41.4233
4.76789 6.5737 42.196
4.35371 6.66485 42.6975
4.29651 6.66498 42.704
3.54798 6.78001 43.4869
3.43826 6.8224 43.6696
3.33339 6.8334 43.8048
3.27421 6.83336 43.8089
2.36503 6.99781 44.7877
2.25355 7.00938 44.9256
1.94983 7.05361 45.1181
1.83606 7.06533 45.2565
1.48996 7.19542 46.0631
1.1745 7.24137 46.2561
1.05515 7.25385 46.3988
0.363226 7.32407 46.8692
0.229624 7.37274 47.0669
-0.0238115 7.38407 47.2025
-0.4165 7.44469 47.5351
-0.481336 7.44382 47.5296
-0.609401 7.45672 47.6733
-1.01026 7.518 48.0046
-1.07566 7.51698 47.9976
-1.61575 7.59194 48.4714
-1.68166 7.59077 48.4627
-2.65511 7.72955 49.2613
-2.8612 7.74158 49.3947
-2.92798 7.74006 49.3825
-3.07554 7.77333 49.5567
-4.00581 7.87955 50.1564
-4.15129 7.8933 50.3016
-4.88015 7.96777 50.7302
-5.0466 8.02315 50.9358
-5.94369 8.11246 51.5001
-6.01161 8.11005 51.4791
9.09086 7.03154 44.7566
9.03434 7.03287 44.775
8.97773 7.03417 44.7933
8.85832 6.97928 44.486
8.77182 6.96846 44.3699
8.71436 6.93828 44.3335
8.61388 6.92175 44.1527
8.42894 6.86404 43.8081
8.35902 6.85942 43.7602
8.28919 6.85478 43.7121
8.19161 6.80839 43.486
8.12238 6.80382 43.4385
8.05314 6.76892 43.3405
7.95776 6.75358 43.1688
7.80818 6.70931 42.9643
7.74015 6.70489 42.9177
7.58 6.65596 42.6553
7.5004 6.6465 42.5495
7.44617 6.61775 42.5151
7.36716 6.60843 42.4103
7.28854 6.59915 42.3058
7.13356 6.55169 42.0519
7.06765 6.54749 42.0071
6.92627 6.50545 41.814
6.84987 6.49658 41.7127
6.77537 6.4592 41.5667
6.72129 6.45972 41.5787
6.49782 6.40551 41.2359
6.444 6.40596 41.2472
6.29805 6.36099 41.0073
6.2444 6.36138 41.0182
6.19071 6.36176 41.0289
6.13696 6.36213 41.0395
6.08315 6.36249 41.05
6.0293 6.36284 41.0604
5.82946 6.40124 41.2535
5.5209 6.41199 41.4209
5.46615 6.41225 41.43
5.07386 6.47043 41.8802
4.29655 6.61018 42.7101
4.0345 6.66135 43.0284
3.54796 6.72384 43.4926
3.33337 6.77671 43.8103
3.27418 6.77664 43.8144
3.1684 6.78741 43.9495
3.05565 6.83033 44.1347
2.25347 6.95075 44.9307
1.94972 6.99461 45.1231
1.83596 7.00609 45.2613
1.42708 7.13447 46.0672
1.17437 7.18047 46.2607
1.05504 7.19271 46.4033
0.677241 7.25159 46.7393
-0.0239551 7.32145 47.2065
-0.149672 7.33396 47.35
-0.219574 7.35138 47.3728
-0.481492 7.38059 47.5335
-1.01041 7.45392 48.0083
-1.07581 7.45289 48.0013
-1.20695 7.46569 48.1453
-1.61589 7.527 48.4748
-1.68181 7.52582 48.4661
-1.96404 7.59015 48.813
-2.65524 7.66315 49.2643
-2.86131 7.67493 49.3976
-3.50086 7.74969 49.8531
-3.56799 7.748 49.8391
-5.41623 7.97902 51.2101
-5.94364 8.04184 51.5018
9.68998 7.10523 45.5807
9.63294 7.10673 45.601
9.5758 7.10821 45.6211
9.42787 7.09815 45.5182
9.3029 7.04166 45.1986
9.03524 6.97645 44.7847
8.87443 6.92919 44.5628
8.68549 6.87077 44.2106
8.61467 6.86611 44.162
8.42968 6.80884 43.8171
8.35974 6.80426 43.7692
8.28937 6.76906 43.6694
8.19228 6.75358 43.4949
8.04036 6.70893 43.2867
7.95838 6.69917 43.1775
7.79586 6.64996 42.9116
7.74071 6.65077 42.9262
7.66036 6.62639 42.7943
7.58053 6.60218 42.6636
7.35566 6.55003 42.3594
7.28901 6.54579 42.3139
7.13399 6.49865 42.0598
7.06806 6.49449 42.015
7.00346 6.46147 41.9235
6.92666 6.45269 41.8218
6.71089 6.40272 41.5304
6.49812 6.35346 41.2433
6.44429 6.35388 41.2546
6.3721 6.31746 41.1121
6.29831 6.30922 41.0146
6.24466 6.30958 41.0254
6.19095 6.30993 41.0361
6.13719 6.31027 41.0467
6.08338 6.3106 41.0571
6.02952 6.31091 41.0674
5.82966 6.34898 41.2605
5.72379 6.32124 41.2358
5.66944 6.32149 41.2454
5.52106 6.3594 41.4276
5.4663 6.35963 41.4367
4.76807 6.46582 42.2086
4.29659 6.55535 42.7162
4.19723 6.56534 42.8484
3.93342 6.61617 43.1676
3.33334 6.72001 43.8159
2.71306 6.8267 44.469
2.60365 6.83763 44.606
2.36486 6.88099 44.798
2.25338 6.89209 44.9358
1.83585 6.94683 45.2662
1.72138 6.95809 45.4046
1.42698 7.07391 46.0719
1.17425 7.11957 46.2653
1.05492 7.13156 46.4079
0.934845 7.14356 46.5507
0.677107 7.18983 46.7437
0.613328 7.18921 46.741
0.229327 7.24803 47.0754
-0.0241007 7.25881 47.2106
-0.48165 7.31734 47.5375
-0.60969 7.32974 47.681
-1.01057 7.38982 48.012
-1.07597 7.38879 48.0049
-1.61604 7.46205 48.4783
-1.68195 7.46087 48.4695
-2.3061 7.55282 48.9595
-2.45034 7.58515 49.1335
-2.65537 7.59675 49.2674
-3.35853 7.66908 49.7108
-4.00597 7.74336 50.1615
-4.15139 7.75658 50.3064
-4.21881 7.75471 50.2906
-4.38143 7.80865 50.4958
-5.94359 7.97121 51.5036
-6.01151 7.96883 51.4826
9.69107 7.04784 45.591
9.63401 7.04929 45.6113
9.57686 7.05072 45.6313
9.42889 7.04077 45.5283
9.03614 6.92001 44.7944
8.86003 6.86715 44.505
8.77348 6.85662 44.3888
8.60079 6.80475 44.1055
8.51532 6.77909 43.9652
8.44468 6.75916 43.8909
8.37455 6.7546 43.8426
8.2623 6.7032 43.5511
8.19296 6.69875 43.5037
7.959 6.64472 43.1862
7.8775 6.60527 43.0277
7.80935 6.60096 42.9813
7.74128 6.59662 42.9346
7.58106 6.54837 42.6719
7.50142 6.53917 42.5661
7.34415 6.49177 42.3086
7.28947 6.4924 42.322
7.21219 6.45441 42.1708
7.13442 6.44558 42.0678
6.92705 6.39991 41.8296
6.71123 6.3503 41.538
6.64646 6.34629 41.4938
6.57311 6.30967 41.3495
6.49842 6.3014 41.2507
6.29857 6.25743 41.0219
6.24491 6.25776 41.0327
6.1912 6.25808 41.0433
6.13743 6.25838 41.0539
6.08361 6.25868 41.0643
6.02974 6.25897 41.0746
5.52121 6.30678 41.4344
5.37456 6.31607 41.5723
5.27862 6.35403 41.7467
5.01469 6.39289 41.9465
4.29662 6.50051 42.7223
4.03453 6.5506 43.0403
3.93343 6.56056 43.1735
3.54793 6.61146 43.5039
3.43818 6.65296 43.6866
3.05556 6.71579 44.1456
2.36477 6.82255 44.8032
2.2533 6.83342 44.9408
1.70456 6.9203 45.3228
1.30028 7.05965 46.2724
1.05479 7.07039 46.4124
0.676971 7.12807 46.7481
0.613189 7.12743 46.7454
0.352987 7.17359 46.9362
0.229175 7.18565 47.0796
-0.481809 7.25409 47.5414
-0.609838 7.26624 47.6849
-1.01072 7.32572 48.0157
-1.07613 7.32468 48.0086
-1.96433 7.45905 48.8196
-2.86154 7.54159 49.4035
-2.93544 7.55965 49.4205
-3.08316 7.59214 49.5949
-4.00605 7.67525 50.164
-4.82938 7.80332 50.815
-4.89708 7.80126 50.7971
-5.72222 7.88953 51.381
-5.87555 7.90293 51.5263
-5.94354 7.90057 51.5054
9.63509 6.99182 45.6216
9.57792 6.99321 45.6416
9.42991 6.98336 45.5384
9.2479 6.92898 45.2375
9.03705 6.86354 44.8042
8.98039 6.86471 44.8223
8.86088 6.81104 44.5146
8.77431 6.80066 44.3983
8.70196 6.76493 44.2954
8.44543 6.70381 43.9001
8.37528 6.69931 43.8517
8.19364 6.64389 43.5127
8.12436 6.63947 43.465
8.05508 6.60493 43.3667
7.80993 6.54674 42.9898
7.74185 6.54246 42.9432
7.58159 6.49453 42.6803
7.50193 6.48547 42.5744
7.44768 6.4568 42.5397
7.35662 6.44313 42.3758
7.21264 6.40119 42.1789
7.13485 6.39249 42.0758
7.08033 6.39303 42.0885
6.92743 6.34711 41.8374
6.77644 6.3018 41.5897
6.72233 6.30222 41.6016
6.57343 6.25746 41.357
6.49871 6.24931 41.2582
6.29883 6.20562 41.0292
6.24516 6.20591 41.0399
6.19144 6.2062 41.0506
6.13766 6.20648 41.0611
6.08384 6.20674 41.0714
6.02996 6.207 41.0817
5.52137 6.25415 41.4412
5.01479 6.33936 41.953
4.91996 6.34857 42.0833
4.66767 6.39671 42.3984
4.29666 6.44565 42.7284
4.19729 6.45519 42.8605
4.03454 6.4952 43.0463
3.93344 6.50493 43.1794
3.16217 6.64821 44.0153
3.05551 6.65849 44.1511
2.71292 6.71097 44.4796
2.25321 6.77473 44.9459
1.3045 6.98142 46.2502
0.676833 7.06629 46.7525
0.613047 7.06563 46.7498
-0.0243984 7.1335 47.2189
-0.160686 7.18149 47.4175
-0.225371 7.18065 47.4126
-0.352265 7.1926 47.5564
-1.01088 7.2616 48.0195
-1.07628 7.26055 48.0123
-1.61633 7.33211 48.4852
-1.68225 7.33092 48.4764
-1.96448 7.39348 48.823
-3.35875 7.53454 49.7164
-3.51623 7.58685 49.9205
-4.38157 7.67123 50.5006
-5.7222 7.81914 51.3829
9.69326 6.93298 45.6119
9.57898 6.93566 45.6519
9.43093 6.92592 45.5486
9.30585 6.87069 45.2285
9.09453 6.8059 44.7957
9.03795 6.80704 44.8139
8.95029 6.79657 44.6958
8.86173 6.75491 44.5242
8.68791 6.70353 44.2387
8.60236 6.69351 44.1241
8.44617 6.64844 43.9092
8.3619 6.63865 43.7965
8.29174 6.61901 43.7222
8.20803 6.59421 43.5849
7.96023 6.53577 43.2036
7.7976 6.48757 42.9372
7.74242 6.48826 42.9517
7.66201 6.46439 42.8196
7.58212 6.44067 42.6887
7.35709 6.38965 42.3839
7.2904 6.38555 42.3383
7.13528 6.33938 42.0838
7.06931 6.33536 42.0388
7.00468 6.30268 41.9471
6.92782 6.29428 41.8452
6.77679 6.24929 41.5974
6.71191 6.24539 41.5533
6.49901 6.1972 41.2657
6.44515 6.19752 41.2769
6.37293 6.16165 41.1342
6.29908 6.15378 41.0365
6.24541 6.15405 41.0472
6.19168 6.1543 41.0578
6.13789 6.15455 41.0683
6.08406 6.15479 41.0786
6.03017 6.15501 41.0888
5.83022 6.19207 41.2815
5.77588 6.19228 41.2912
5.72148 6.19247 41.3007
5.66704 6.19265 41.3101
5.52152 6.20149 41.448
5.27887 6.24769 41.76
4.92005 6.2948 42.0897
4.82457 6.3038 42.2202
4.7683 6.30385 42.2276
4.66773 6.34241 42.4047
4.03455 6.43978 43.0523
3.93345 6.44929 43.1853
3.83167 6.45881 43.3186
3.43811 6.53992 43.698
3.33324 6.54978 43.8328
2.9957 6.60097 44.1599
2.77314 6.65333 44.4823
2.71284 6.65308 44.485
2.25312 6.71603 44.951
1.713 6.81309 45.4711
1.05454 6.948 46.4216
0.929903 6.97678 46.5913
0.676692 7.00449 46.7569
0.352659 7.04929 46.9449
0.228865 7.06085 47.0882
0.0398821 7.07163 47.2274
-0.352423 7.12934 47.5604
-0.482135 7.12753 47.5493
-0.610139 7.13918 47.6926
-1.48326 7.25518 48.3446
-1.96463 7.3279 48.8263
-2.24014 7.35656 48.9798
-2.30656 7.3552 48.9692
-3.08342 7.45809 49.6008
-4.0062 7.539 50.1691
-4.16759 7.59173 50.374
-4.23507 7.58987 50.358
-4.38164 7.60251 50.5031
-4.8972 7.66266 50.8017
-5.72218 7.74874 51.3848
-5.87544 7.76162 51.5298
-5.94343 7.75928 51.5089
-6.02969 7.79888 51.5493
9.69436 6.8755 45.6223
9.63725 6.8768 45.6424
9.58005 6.87809 45.6622
9.43195 6.86845 45.5588
9.30683 6.81365 45.2386
8.86259 6.69875 44.5338
8.60314 6.63785 44.1335
8.51718 6.59744 43.9667
8.44691 6.59305 43.9184
8.26438 6.5384 43.5781
8.19499 6.5341 43.5306
8.12567 6.52978 43.4828
7.96085 6.48125 43.2123
7.87925 6.45724 43.0785
7.8111 6.43823 43.007
7.58265 6.38679 42.6971
7.50295 6.37799 42.591
7.35757 6.33614 42.3922
7.29086 6.33209 42.3464
7.20186 6.29023 42.137
7.13571 6.28624 42.0918
6.9282 6.24143 41.8531
6.71225 6.1929 41.561
6.64744 6.18903 41.5167
6.57405 6.15297 41.3721
6.29934 6.10193 41.0439
6.24565 6.10216 41.0546
6.13812 6.1026 41.0755
6.08428 6.10281 41.0858
6.03039 6.103 41.096
5.52166 6.14881 41.4549
5.27899 6.19449 41.7668
5.01497 6.23225 41.9661
4.92013 6.24102 42.0962
4.6678 6.2881 42.4111
4.57062 6.29706 42.5425
4.29671 6.33586 42.7407
4.09236 6.38441 43.0526
4.03456 6.38434 43.0583
3.93345 6.39363 43.1913
3.43807 6.48337 43.7037
2.99564 6.54362 44.1654
2.71276 6.59517 44.4903
1.18102 6.88795 46.4294
1.05441 6.88679 46.4262
0.612756 6.942 46.7586
0.49037 6.95316 46.9014
0.352492 6.98711 46.9493
0.228707 6.99843 47.0924
-0.161022 7.05546 47.4258
-0.225712 7.0546 47.4208
-0.352584 7.06606 47.5644
-0.4823 7.06423 47.5533
-1.01119 7.13332 48.0269
-1.0766 7.13226 48.0197
-1.48343 7.19043 48.3481
-1.8296 7.25042 48.6849
-1.96478 7.26231 48.8297
-2.72257 7.32956 49.2679
-2.86902 7.36097 49.4418
-2.94303 7.37891 49.4588
-3.08355 7.39105 49.6038
-4.82955 7.59538 50.8219
-4.89726 7.59334 50.804
-5.72216 7.67833 51.3867
-5.87539 7.69095 51.5316
9.69546 6.81799 45.6328
9.58111 6.82049 45.6726
9.43297 6.81095 45.569
9.03976 6.69396 44.8335
8.86344 6.64256 44.5434
8.77618 6.61714 44.3998
8.70439 6.59725 44.3237
8.44766 6.53762 43.9277
8.37745 6.53327 43.8791
8.19566 6.47917 43.5396
8.12633 6.4749 43.4917
8.04356 6.43579 43.3306
7.81168 6.38394 43.0157
7.74355 6.3798 42.9688
7.58318 6.33288 42.7055
7.50345 6.32421 42.5994
7.44919 6.29563 42.5645
7.35805 6.28261 42.4004
7.2023 6.23702 42.1451
7.13613 6.23308 42.0999
7.08158 6.23351 42.1125
6.91744 6.18431 41.8041
6.83007 6.17201 41.6463
6.77749 6.14419 41.6129
6.71258 6.14039 41.5687
6.49959 6.09292 41.2808
6.44572 6.09317 41.2919
6.29959 6.05005 41.0513
6.2459 6.05025 41.0619
6.13835 6.05063 41.0828
6.0845 6.05081 41.0931
5.83059 6.08736 41.2957
5.52181 6.09611 41.4618
5.27911 6.14127 41.7735
4.66785 6.23376 42.4175
4.29674 6.28094 42.7469
4.09237 6.32897 43.0587
2.71268 6.53725 44.4957
2.60328 6.54701 44.6323
2.18813 6.61458 44.9881
2.07182 6.64108 45.1516
1.18089 6.82676 46.434
0.925024 6.87121 46.6276
0.612607 6.88016 46.7631
0.228546 6.93599 47.0967
0.104024 6.94707 47.24
0.0395772 6.94625 47.2357
-0.161193 6.99243 47.4299
-0.225885 6.99156 47.4249
-0.352746 7.00277 47.5684
-0.7507 7.05988 47.9004
-1.62937 7.17465 48.5529
-1.82977 7.18507 48.6884
-1.96493 7.19671 48.8331
-2.31363 7.24249 49.0048
-2.72271 7.2631 49.271
-3.35907 7.33265 49.7248
-3.5166 7.38395 49.929
-4.23526 7.45291 50.363
-5.72213 7.60792 51.3886
-6.02968 7.65742 51.5531
9.69656 6.76045 45.6433
9.58218 6.76286 45.683
9.43399 6.75343 45.5792
9.21948 6.68917 45.1381
9.04066 6.63738 44.8434
8.95143 6.5962 44.6701
8.8643 6.58635 44.5531
8.70521 6.54131 44.3332
8.6047 6.52646 44.1523
8.4484 6.48218 43.9369
8.34994 6.46774 43.7596
8.27968 6.43337 43.6599
8.21008 6.42914 43.6119
8.0442 6.38109 43.3395
7.96208 6.37214 43.2299
7.79933 6.32495 42.9631
7.73135 6.32089 42.9165
7.66385 6.28752 42.8205
7.5837 6.27895 42.714
7.42535 6.233 42.4543
7.35852 6.22905 42.4087
7.29178 6.2251 42.3628
7.13656 6.1799 42.1079
7.07054 6.17602 42.0628
6.99458 6.13949 41.9137
6.92896 6.13566 41.8688
6.77784 6.09161 41.6207
6.71292 6.08785 41.5764
6.49988 6.04074 41.2883
6.37374 6.00565 41.1565
6.29984 5.99815 41.0587
6.24614 5.99832 41.0693
6.08472 5.99878 41.1003
6.03081 5.99892 41.1104
5.88509 6.03485 41.2931
5.83077 6.03497 41.3028
5.72198 6.03519 41.3218
5.66751 6.03529 41.3311
5.27923 6.08803 41.7802
5.22384 6.08807 41.7886
4.66791 6.17941 42.4239
4.03456 6.27341 43.0704
3.93345 6.28224 43.2032
3.82635 6.32169 43.3847
3.33312 6.37939 43.8498
2.99551 6.42886 44.1765
2.88139 6.47008 44.362
2.7126 6.47931 44.5011
1.77452 6.63463 45.4859
1.18077 6.76554 46.4387
1.04515 6.79891 46.4892
0.924875 6.80964 46.6323
0.861278 6.80899 46.63
0.228383 6.87354 47.101
0.103871 6.88437 47.2442
-0.226061 6.9285 47.429
-0.35291 6.93946 47.5725
-0.621875 6.98485 47.7604
-0.750871 6.99598 47.9043
-1.82994 7.11971 48.6919
-1.96508 7.13109 48.8364
-2.09763 7.12848 48.8165
-2.2406 7.15885 48.9897
-2.94333 7.24531 49.4649
-3.86192 7.32288 50.0326
-4.00643 7.33455 50.1767
-4.23535 7.38442 50.3656
-4.82966 7.45671 50.8265
-5.72211 7.53749 51.3905
-5.87526 7.54959 51.5352
-6.02967 7.58668 51.555
9.69766 6.70289 45.6538
9.58324 6.70519 45.6934
9.49228 6.69476 45.5703
9.43501 6.69587 45.5895
9.30978 6.64235 45.2689
8.95231 6.53981 44.6798
8.84997 6.52483 44.4958
8.69114 6.48017 44.2766
8.60548 6.47072 44.1617
8.51946 6.43094 43.9946
8.44914 6.4267 43.9462
8.26646 6.37337 43.6054
8.19701 6.36922 43.5576
7.9627 6.31754 43.2388
7.88109 6.27931 43.0797
7.81285 6.27529 43.033
7.63922 6.22449 42.7086
7.58423 6.22499 42.7225
7.50446 6.21658 42.6163
7.35899 6.17547 42.4169
7.26851 6.16296 42.2537
7.20318 6.13053 42.1614
7.13698 6.12669 42.116
6.98367 6.08242 41.8646
6.91819 6.07866 41.8199
6.71325 6.03529 41.5842
6.6484 6.03157 41.5397
6.57497 5.99607 41.3949
6.30009 5.94622 41.0661
6.24638 5.94636 41.0767
6.19262 5.9465 41.0871
6.1388 5.94662 41.0974
6.08493 5.94674 41.1076
6.03101 5.94684 41.1177
4.57077 6.13333 42.5615
4.19259 6.20943 42.9382
4.09238 6.21805 43.0709
3.43794 6.31361 43.721
2.99544 6.37146 44.182
2.77283 6.42168 44.504
2.71251 6.42135 44.5065
2.59966 6.44675 44.6683
2.48589 6.47236 44.831
2.07159 6.5229 45.1618
1.65921 6.5848 45.63
0.861123 6.74739 46.6347
0.607518 6.77392 46.7991
0.480119 6.80202 46.9694
-0.161541 6.86632 47.4382
-0.226239 6.86543 47.4332
-0.353076 6.87614 47.5765
-0.751045 6.93206 47.9082
-1.01168 6.94081 48.0382
-1.08303 6.95809 48.0591
-1.69574 7.04321 48.5511
-1.83011 7.05433 48.6953
-1.96523 7.06547 48.8398
-2.73003 7.14938 49.3064
-3.51686 7.24863 49.9346
-4.23544 7.31591 50.3681
-4.68115 7.37561 50.684
-4.82971 7.38736 50.8288
-5.50185 7.45742 51.268
-5.56971 7.45524 51.248
-5.72208 7.46706 51.3924
9.69876 6.64529 45.6644
9.58431 6.6475 45.7038
9.43603 6.63829 45.5998
9.31076 6.58519 45.2791
9.18747 6.53298 44.9639
9.04247 6.52414 44.8631
8.85082 6.46866 44.5055
8.77868 6.44896 44.4286
8.70683 6.42933 44.3523
8.52023 6.37539 44.004
8.44988 6.3712 43.9555
8.37962 6.36699 43.9068
8.26716 6.31831 43.6145
8.19769 6.31421 43.5667
8.12818 6.2952 43.493
8.04548 6.2716 43.3573
7.81343 6.22092 43.0417
7.74524 6.21693 42.9947
7.58475 6.17101 42.731
7.50497 6.16273 42.6247
7.43851 6.12998 42.5303
7.37149 6.12611 42.4842
7.20361 6.07725 42.1695
7.1374 6.07346 42.1242
6.98406 6.02951 41.8726
6.91856 6.02579 41.8279
6.77853 5.98638 41.6363
6.72436 5.9866 41.6479
6.56479 5.93993 41.3475
6.50045 5.93631 41.3035
6.30034 5.89427 41.0736
6.24662 5.89439 41.0841
6.19285 5.89449 41.0945
6.13902 5.89458 41.1047
6.08515 5.89467 41.1149
5.83112 5.93013 41.3171
5.66782 5.93027 41.3451
5.22406 5.98146 41.8021
5.13048 5.98921 41.9314
4.19259 6.15416 42.9444
4.09238 6.16256 43.077
4.03455 6.1624 43.0826
3.82632 6.20964 43.3967
3.43789 6.25698 43.7268
3.33302 6.2657 43.8612
3.16181 6.30545 44.049
2.77274 6.36373 44.5095
2.71243 6.36337 44.512
2.07146 6.46379 45.167
1.65908 6.52488 45.6349
0.924569 6.68646 46.6415
0.860965 6.68578 46.6393
0.103559 6.75893 47.2527
0.0338988 6.77585 47.276
-0.161717 6.80325 47.4424
-0.226418 6.80234 47.4373
-0.622249 6.85751 47.7684
-0.75122 6.86813 47.9121
-1.62992 6.9793 48.5637
-1.69592 6.97807 48.5547
-1.83028 6.98895 48.6988
-3.15102 7.12121 49.6025
-3.37442 7.16968 49.7927
-3.51698 7.18095 49.9375
-4.23554 7.2474 50.3707
-4.44951 7.25686 50.4985
-4.82977 7.31801 50.8311
-5.50185 7.38723 51.27
-5.56971 7.38506 51.2501
-6.02964 7.44517 51.5587
9.69986 6.58766 45.675
9.58538 6.58978 45.7143
9.49436 6.57965 45.591
9.43706 6.58067 45.6101
9.31175 6.528 45.2893
9.04338 6.46747 44.8731
8.95407 6.42695 44.6994
8.70765 6.3733 44.3618
8.45063 6.31567 43.9648
8.35208 6.30193 43.7873
8.28178 6.26791 43.6873
8.21212 6.26383 43.6391
8.04611 6.21682 43.3662
7.96393 6.20828 43.2565
7.81401 6.16653 43.0504
7.72024 6.1538 42.8815
7.66549 6.12517 42.8462
7.58528 6.117 42.7395
7.42681 6.07204 42.4794
7.35994 6.06824 42.4336
7.29315 6.06443 42.3876
7.19234 6.0199 42.1197
7.13782 6.0202 42.1323
7.06028 6.01244 42.0293
6.99576 5.98052 41.9377
6.93009 5.97682 41.8927
6.77887 5.93373 41.6441
6.71391 5.9301 41.5998
6.55459 5.88393 41.3001
6.50073 5.88407 41.3112
6.37453 5.84944 41.1789
6.30058 5.8423 41.081
6.24685 5.84238 41.0915
6.19307 5.84246 41.1019
6.13924 5.84252 41.1121
6.08536 5.84258 41.1222
6.03142 5.84262 41.1322
5.94125 5.86376 41.2828
5.88564 5.87764 41.3147
5.83129 5.87767 41.3242
5.7769 5.8777 41.3337
5.72246 5.87772 41.343
5.66797 5.87773 41.3522
5.22416 5.92813 41.8088
4.66806 6.01623 42.4432
4.09238 6.10705 43.0832
4.03454 6.10686 43.0887
3.93084 6.13014 43.2453
3.82629 6.15359 43.4027
3.49682 6.20061 43.7285
3.43784 6.20034 43.7327
3.33296 6.20884 43.867
2.99529 6.2566 44.1932
2.07134 6.40466 45.1722
1.95804 6.41383 45.3101
1.89641 6.41332 45.3106
1.77411 6.45559 45.5009
0.860805 6.62416 46.6439
0.479776 6.67759 46.9784
-0.161896 6.74016 47.4466
-0.2266 6.73924 47.4415
-0.353415 6.74946 47.5846
-0.622438 6.79381 47.7724
-0.751396 6.80418 47.9161
-1.22064 6.85837 48.2389
-1.41848 6.86769 48.3746
-1.83045 6.92355 48.7023
-2.10475 6.95036 48.8554
-2.24787 6.97996 49.0289
-3.15115 7.05411 49.6055
-3.87003 7.13879 50.0703
-4.02262 7.16958 50.2447
-4.23563 7.17888 50.3732
-4.68131 7.2374 50.6888
-4.82982 7.24864 50.8334
-5.50185 7.31703 51.272
-5.56971 7.31487 51.2521
-5.72201 7.32618 51.3962
-5.89364 7.37895 51.6031
9.70096 6.53 45.6856
9.58645 6.53203 45.7248
9.43808 6.52303 45.6205
9.31273 6.47078 45.2995
9.2214 6.42979 45.1217
8.95496 6.37048 44.7092
8.85252 6.35622 44.525
8.69356 6.31235 44.3052
8.60736 6.28819 44.1634
8.52175 6.2642 44.0228
8.45137 6.26011 43.9742
8.26854 6.20811 43.6328
8.19904 6.2041 43.5849
8.04675 6.16201 43.3752
7.96454 6.1536 43.2654
7.88288 6.11599 43.1061
7.81458 6.11211 43.0592
7.64083 6.06258 42.7343
7.5858 6.06296 42.748
7.34837 6.0105 42.383
7.26985 6.00271 42.2785
7.20448 5.97062 42.186
6.99615 5.92747 41.9458
6.71423 5.87748 41.6076
6.56538 5.83532 41.3629
6.30082 5.79031 41.0885
6.24709 5.79036 41.099
6.08557 5.79046 41.1296
6.03162 5.79048 41.1395
5.27968 5.87485 41.8075
4.66811 5.96179 42.4497
4.57091 5.96943 42.5806
4.09237 6.05152 43.0894
4.03453 6.05131 43.0949
3.43778 6.14368 43.7385
3.16166 6.19105 44.0605
2.71224 6.24737 44.5229
2.59936 6.27197 44.6845
2.07121 6.34551 45.1773
0.924254 6.56322 46.6509
0.860643 6.56251 46.6486
0.602193 6.60547 46.8399
0.479601 6.61536 46.9829
-0.162077 6.67705 47.4508
-0.226783 6.67613 47.4457
-0.353587 6.6861 47.5887
-0.751575 6.74023 47.92
-1.02406 6.78466 48.1064
-1.08956 6.78356 48.099
-1.6303 6.849 48.571
-1.6963 6.84777 48.5619
-1.83062 6.85814 48.7058
-1.96287 6.85557 48.6865
-2.73049 6.94974 49.3158
-3.37472 7.03481 49.7985
-3.51723 7.04557 49.9431
-4.23571 7.11035 50.3757
-4.44963 7.11931 50.5033
-4.53367 7.15731 50.5468
-4.68139 7.16829 50.6912
-5.50185 7.24683 51.274
-5.56971 7.24468 51.2541
-6.0296 7.30363 51.5625
9.70206 6.47232 45.6962
9.49644 6.46443 45.6119
9.40365 6.42313 45.4313
9.31372 6.41354 45.3097
9.19031 6.36258 44.9941
8.85337 6.29995 44.5348
8.78117 6.28052 44.4576
8.70927 6.26116 44.381
8.52251 6.20856 44.0322
8.45211 6.20452 43.9835
8.38179 6.20047 43.9346
8.26923 6.15296 43.642
8.19971 6.14901 43.5941
8.13016 6.13025 43.5202
8.04739 6.10717 43.3842
7.88348 6.0615 43.1149
7.81516 6.05766 43.068
7.74693 6.05382 43.0208
7.58632 6.0089 42.7566
7.50647 6.00103 42.6502
7.42778 5.96461 42.4962
7.20491 5.91727 42.1942
7.13865 5.91362 42.1487
6.98521 5.87063 41.8967
6.90849 5.86329 41.795
6.85572 5.83557 41.7607
6.77955 5.82835 41.6599
6.71456 5.82482 41.6154
6.55517 5.77943 41.3155
6.50129 5.7795 41.3265
6.30106 5.7383 41.0961
6.24732 5.73831 41.1065
6.08577 5.73833 41.1369
5.88599 5.77272 41.3292
5.83163 5.77269 41.3387
5.72276 5.77262 41.3573
5.66826 5.77258 41.3664
5.57742 5.77954 41.4946
5.52263 5.77947 41.5034
5.27978 5.8215 41.8143
5.22436 5.8214 41.8225
4.66815 5.90734 42.4562
4.19258 5.98824 42.9632
4.09236 5.99597 43.0956
3.82624 6.04143 43.4148
3.43772 6.087 43.7444
3.33285 6.09504 43.8785
3.26756 6.12562 43.9313
3.16158 6.13382 44.0662
2.77247 6.18975 44.526
2.71214 6.18934 44.5284
2.24856 6.26197 45.0182
2.18366 6.27765 45.045
1.77382 6.33615 45.5111
1.22085 6.42807 46.0314
0.924093 6.50158 46.6556
0.860478 6.50086 46.6532
0.479424 6.5531 46.9874
0.291814 6.56192 47.1267
0.0926667 6.60596 47.3212
0.0281278 6.60508 47.3167
-0.16226 6.61393 47.455
-0.622822 6.66638 47.7805
-0.751755 6.67625 47.924
-1.35301 6.73923 48.3902
-1.41883 6.73805 48.3819
-1.63049 6.78384 48.5746
-1.69649 6.7826 48.5655
-2.24821 6.84794 49.0356
-3.15142 6.91989 49.6114
-3.22573 6.93759 49.6276
-3.37487 6.96736 49.8015
-3.51735 6.97786 49.946
-5.50184 7.17661 51.2761
-5.8936 7.23735 51.6069
9.49748 6.40677 45.6223
9.40467 6.36571 45.4416
9.31471 6.35626 45.32
9.19126 6.30573 45.0043
9.04529 6.28188 44.8749
8.95672 6.25745 44.729
8.7814 6.20911 44.4401
8.69517 6.20034 44.3245
8.52327 6.1529 44.0417
8.45285 6.14891 43.9929
8.26992 6.09779 43.6512
8.04802 6.05231 43.3932
7.81574 6.00319 43.0768
7.72189 5.99112 42.9077
7.65451 5.95855 42.8119
7.58684 5.95482 42.7652
7.42826 5.91085 42.5047
7.3493 5.90328 42.3997
7.2945 5.90353 42.4126
7.20534 5.86389 42.2025
7.13907 5.86029 42.1569
7.06209 5.83889 42.0303
6.99692 5.82132 41.9619
6.77989 5.77563 41.6678
6.71488 5.77214 41.6233
6.55545 5.72714 41.3232
6.50157 5.72718 41.3342
6.42807 5.70666 41.2132
6.37531 5.69302 41.2016
6.3013 5.68626 41.1036
6.24755 5.68625 41.114
6.08598 5.68617 41.1443
6.03202 5.68612 41.1542
5.94181 5.70653 41.3047
5.88616 5.72022 41.3364
5.8318 5.72017 41.3459
5.72291 5.72004 41.3644
5.6684 5.71997 41.3735
5.57756 5.72672 41.5017
5.27988 5.76813 41.8212
5.22445 5.768 41.8293
4.92072 5.81002 42.149
4.82114 5.84584 42.3251
4.66819 5.85286 42.4627
4.09235 5.9404 43.1018
4.0345 5.94014 43.1073
3.93078 5.96264 43.2636
3.82621 5.98532 43.4209
3.43766 6.0303 43.7503
2.71204 6.13129 44.5339
0.479245 6.49084 46.9919
0.355927 6.50023 47.135
0.291641 6.49939 47.1311
-0.162445 6.5508 47.4593
-0.227156 6.54986 47.4541
-0.353937 6.55933 47.5969
-0.623017 6.60265 47.7845
-1.08996 6.6549 48.1067
-1.35318 6.6744 48.3939
-1.69669 6.71741 48.5691
-1.89711 6.72599 48.7032
-1.96322 6.72469 48.6934
-2.11197 6.7719 48.8948
-2.24839 6.78191 49.039
-3.51748 6.91014 49.9488
-3.79529 6.91698 50.0636
-3.87827 6.95436 50.1085
-4.68154 7.03003 50.696
-4.82995 7.04049 50.8403
-5.56969 7.10426 51.258
-5.74025 7.15578 51.4641
-5.89357 7.16653 51.6088
9.70427 6.35685 45.7176
9.49853 6.34908 45.6328
9.31569 6.29895 45.3303
9.1354 6.24956 45.0324
8.94219 6.19615 44.6716
8.87029 6.19206 44.6214
8.69598 6.14429 44.3341
8.58092 6.12659 44.088
8.52403 6.09721 44.0511
8.46793 6.09773 44.0671
8.35438 6.05079 43.7723
8.27061 6.04259 43.6605
8.20105 6.03874 43.6124
8.04866 5.99742 43.4022
7.93991 5.9811 43.1684
7.88467 5.95243 43.1327
7.81632 5.94869 43.0856
7.64242 5.90043 42.7603
7.58736 5.90071 42.7739
7.34976 5.84964 42.4082
7.27117 5.84223 42.3036
7.20577 5.81049 42.2108
7.13948 5.80693 42.1651
6.99731 5.76821 41.97
6.9204 5.7611 41.868
6.85491 5.75761 41.8229
6.7152 5.71944 41.6312
6.56625 5.67823 41.3861
6.30154 5.63419 41.1112
6.24777 5.63415 41.1215
6.08618 5.63398 41.1517
6.03221 5.63391 41.1616
5.57769 5.67388 41.5088
5.52289 5.67375 41.5175
5.27998 5.71474 41.8281
4.92078 5.75605 42.1557
4.66823 5.79837 42.4693
4.56882 5.8199 42.6235
4.19256 5.87753 42.9758
4.09234 5.88481 43.108
4.03448 5.88453 43.1135
3.43759 5.97358 43.7562
3.16142 6.01931 44.0777
2.71194 6.07322 44.5394
2.18338 6.15974 45.0556
1.34671 6.26473 45.8493
0.729426 6.42097 46.8598
0.479064 6.42855 46.9965
0.0922846 6.48022 47.3299
0.0277399 6.47932 47.3254
-0.162632 6.48765 47.4635
-0.227346 6.4867 47.4583
-0.623214 6.53889 47.7886
-0.752121 6.54827 47.9319
-1.09016 6.59055 48.1106
-1.63087 6.65346 48.5819
-1.69688 6.65222 48.5727
-1.89729 6.66054 48.7067
-2.51891 6.7228 49.1639
-2.59244 6.74024 49.1816
-3.37516 6.83243 49.8074
-3.5176 6.84242 49.9516
-4.46645 6.95255 50.5715
-4.68161 6.96088 50.6984
-5.19996 7.01553 50.9923
-5.35052 7.02585 51.1361
-5.50183 7.03616 51.2801
9.70538 6.29907 45.7283
9.49957 6.29136 45.6434
9.4067 6.25076 45.4624
8.94307 6.13966 44.6815
8.84069 6.12638 44.4974
8.78307 6.0967 44.4596
8.69679 6.08821 44.3438
8.58082 6.041 44.0446
8.52479 6.04149 44.0607
8.45433 6.0376 44.0118
8.2713 5.98737 43.6698
8.20173 5.98356 43.6217
8.13202 5.95039 43.5217
8.04929 5.9425 43.4113
7.88526 5.89786 43.1416
7.81689 5.89417 43.0945
7.74861 5.89047 43.0472
7.64295 5.84633 42.769
7.58788 5.84657 42.7825
7.50796 5.83909 42.6759
7.42923 5.80327 42.5217
7.27259 5.76056 42.2645
7.2062 5.75706 42.2191
7.1399 5.75355 42.1734
6.98635 5.71153 41.921
6.92076 5.70809 41.8761
6.85679 5.67694 41.7847
6.78056 5.67011 41.6837
6.72634 5.67014 41.6951
6.56654 5.62582 41.3939
6.50212 5.62248 41.3496
6.30177 5.58211 41.1187
6.248 5.58204 41.129
6.08638 5.58178 41.1592
5.66868 5.61468 41.3878
5.52301 5.62085 41.5246
5.28008 5.66132 41.835
4.66826 5.74385 42.4758
4.29682 5.78578 42.8034
4.19255 5.82214 42.9821
4.09232 5.8292 43.1143
4.03446 5.8289 43.1197
3.82614 5.87305 43.4331
3.43753 5.91685 43.7621
3.33265 5.92421 43.896
3.16134 5.96203 44.0835
2.71183 6.01514 44.545
2.24444 6.1013 45.06
2.18323 6.10075 45.061
1.34654 6.20435 45.8542
0.47888 6.36625 47.001
0.35558 6.37516 47.1439
0.291287 6.37429 47.14
0.0920903 6.41732 47.3343
0.0275429 6.41641 47.3298
-0.623412 6.47513 47.7927
-0.752306 6.48426 47.9359
-1.09037 6.52619 48.1145
-1.22158 6.53543 48.2578
-1.43185 6.58007 48.4505
-1.49773 6.57886 48.4418
-1.76305 6.58574 48.567
-3.16667 6.75678 49.6798
-3.23365 6.75521 49.6664
-3.37531 6.76494 49.8103
-3.51772 6.77468 49.9545
-3.87855 6.81823 50.1141
-4.68169 6.89173 50.7008
-4.83004 6.90168 50.8448
-5.20001 6.94581 50.9945
9.40772 6.19324 45.4728
9.31767 6.18425 45.351
9.19411 6.13498 45.0348
9.04801 6.11156 44.9051
8.94395 6.08313 44.6915
8.7839 6.04045 44.4694
8.6976 6.03211 44.3536
8.52555 5.98574 44.0702
8.45507 5.98191 44.0213
8.3841 5.94839 43.919
8.27199 5.93212 43.6791
8.04993 5.88756 43.4204
7.81747 5.83962 43.1034
7.72353 5.82821 42.9341
7.64348 5.7922 42.7777
7.5884 5.79241 42.7912
7.4297 5.74944 42.5302
7.35067 5.74226 42.4251
7.19489 5.70004 42.1694
7.14031 5.70014 42.1817
7.06328 5.67923 42.0549
6.99807 5.6619 41.9863
6.93232 5.65849 41.941
6.78089 5.61731 41.6917
6.70502 5.61063 41.5911
6.5563 5.57014 41.3466
6.50239 5.57009 41.3574
6.4278 5.56358 41.2584
6.3659 5.53324 41.1702
6.302 5.53 41.1263
6.24822 5.5299 41.1366
6.08658 5.52955 41.1666
5.94369 5.53545 41.3044
5.88667 5.56261 41.3584
5.77784 5.56232 41.3769
5.72335 5.56217 41.386
5.66881 5.56201 41.395
5.28018 5.60789 41.842
4.92089 5.64805 42.1691
4.82128 5.68302 42.3451
4.0923 5.77357 43.1206
4.03443 5.77325 43.1259
3.93069 5.79497 43.2821
3.8261 5.81688 43.4393
3.43745 5.86009 43.768
3.16125 5.90473 44.0893
2.47395 5.99508 44.741
1.89162 6.0729 45.3673
1.77321 6.09706 45.5315
1.34636 6.14395 45.8592
1.03877 6.19284 46.1889
0.729053 6.2969 46.8692
0.478693 6.30394 47.0056
0.0918939 6.35441 47.3388
0.0273437 6.35349 47.3341
-0.163012 6.36131 47.472
-0.233134 6.37795 47.4946
-0.365558 6.4045 47.6657
-0.623612 6.41135 47.7968
-1.09058 6.46181 48.1184
-1.22177 6.47081 48.2616
-1.76325 6.52051 48.5706
-1.89765 6.5296 48.7137
-1.97035 6.54676 48.7327
-2.11255 6.57449 48.9053
-3.8114 6.75187 50.1321
-4.46665 6.81473 50.5766
-4.53419 6.81287 50.5594
-4.83008 6.83226 50.8471
-5.20006 6.87607 50.9967
-5.35056 6.88587 51.1403
-5.57873 6.91383 51.295
9.70759 6.18342 45.7498
9.50166 6.17583 45.6645
9.40874 6.1357 45.4833
9.31866 6.12685 45.3614
9.01687 6.0305 44.7516
8.94482 6.02658 44.7015
8.6984 5.97597 44.3633
8.61161 5.93797 44.1939
8.52631 5.92997 44.0798
8.47017 5.93037 44.0956
8.35652 5.88462 43.8004
8.27268 5.87684 43.6884
8.21686 5.87717 43.7035
8.05056 5.83259 43.4295
7.96825 5.79607 43.2684
7.88644 5.78863 43.1595
7.81804 5.78504 43.1123
7.64401 5.73805 42.7865
7.58892 5.73822 42.7999
7.35113 5.68854 42.4336
7.27348 5.65353 42.2814
7.20705 5.65012 42.2358
6.99845 5.60871 41.9945
6.92148 5.60199 41.8923
6.78122 5.56449 41.6997
6.71616 5.56119 41.655
6.56711 5.52092 41.4095
6.35597 5.47799 41.1236
6.30223 5.47786 41.134
6.24844 5.47773 41.1442
6.08677 5.4773 41.1741
5.52325 5.515 41.5388
5.28027 5.55443 41.8489
4.92094 5.59401 42.1759
4.66832 5.63475 42.489
4.56889 5.65553 42.6431
4.19251 5.71131 42.9949
4.09228 5.71792 43.1269
4.03441 5.71757 43.1322
3.43738 5.80332 43.774
3.16115 5.84741 44.0951
2.71161 5.89892 44.5561
0.606722 6.24331 47.017
0.542611 6.24246 47.0137
0.156258 6.29241 47.3477
0.0916955 6.29149 47.3432
0.0271424 6.29056 47.3385
-0.0984725 6.2991 47.4814
-0.623814 6.34756 47.8009
-0.752682 6.35619 47.9438
-1.09079 6.39742 48.1223
-1.49815 6.44891 48.4494
-1.76345 6.45527 48.5743
-1.89783 6.46411 48.7172
-2.5264 6.54259 49.2031
-2.60003 6.5599 49.2209
-3.23399 6.62071 49.6725
-4.32007 6.73633 50.4352
-4.46675 6.7458 50.5791
-4.53428 6.74395 50.562
-4.68182 6.75339 50.7056
-5.20012 6.80633 50.999
-5.35058 6.81587 51.1425
9.67445 6.11598 45.6181
9.5027 6.11802 45.6751
9.40975 6.07812 45.4937
9.13914 6.02154 45.073
9.01777 5.97387 44.7617
8.9457 5.97 44.7115
8.8578 5.94669 44.5663
8.78557 5.92786 44.4891
8.69921 5.91981 44.3731
8.59777 5.87791 44.1385
8.52707 5.87417 44.0894
8.45655 5.87043 44.0404
8.27337 5.82153 43.6978
8.20374 5.81787 43.6495
8.13399 5.78507 43.5493
8.05119 5.77759 43.4387
7.88703 5.73398 43.1685
7.81861 5.73044 43.1212
7.75027 5.72689 43.0737
7.64454 5.68387 42.7952
7.57695 5.6804 42.7487
7.50979 5.66278 42.6774
7.43066 5.6417 42.5473
7.20748 5.59662 42.2442
7.14113 5.59325 42.1984
6.98747 5.5522 41.9456
6.92184 5.54891 41.9005
6.85629 5.5456 41.8552
6.78155 5.51164 41.7077
6.7273 5.51158 41.719
6.63194 5.47163 41.4616
6.56739 5.46844 41.4174
6.50293 5.46524 41.373
6.30246 5.42571 41.1416
6.24866 5.42554 41.1518
6.08696 5.42502 41.1816
5.887 5.45741 41.3731
5.66907 5.45659 41.4095
5.52337 5.46204 41.5459
5.28036 5.50095 41.8559
5.01588 5.53401 42.0535
4.66835 5.58017 42.4957
4.29443 5.63491 42.8461
4.19249 5.65586 43.0013
4.09226 5.66225 43.1332
3.82601 5.70448 43.4516
3.4373 5.74652 43.78
3.32941 5.76844 43.9384
3.16106 5.79007 44.101
2.71149 5.84078 44.5617
2.244 5.92429 45.0762
2.18278 5.9237 45.0771
1.346 6.02312 45.8691
0.606537 6.18099 47.0216
0.542424 6.18013 47.0183
0.478314 6.17926 47.0148
0.349978 6.20473 47.1851
0.280535 6.22114 47.2089
0.15606 6.22948 47.3522
0.0914949 6.22855 47.3476
0.0269391 6.22761 47.3429
-0.365979 6.27743 47.6742
-0.624018 6.28375 47.805
-1.091 6.33301 48.1263
-1.49836 6.38392 48.4531
-2.8722 6.49936 49.3431
-3.01183 6.50817 49.486
-3.23416 6.55344 49.6755
-3.81167 6.61568 50.1378
-4.53438 6.67502 50.5645
-5.20016 6.73658 51.0012
9.41077 6.02051 45.5043
9.10834 5.95568 44.9462
9.0343 5.9215 44.8395
8.96202 5.91766 44.7889
8.84281 5.87113 44.4823
8.7864 5.87152 44.4989
8.70002 5.86362 44.3829
8.52783 5.81833 44.099
8.45729 5.81465 44.0499
8.38627 5.78151 43.9473
8.27406 5.76619 43.7072
8.13465 5.7299 43.5585
8.03839 5.71882 43.3855
7.81918 5.67581 43.1302
7.64506 5.62966 42.804
7.43114 5.58779 42.5559
7.35204 5.58101 42.4507
7.2079 5.54309 42.2526
7.14153 5.53977 42.2067
7.06445 5.51934 42.0797
6.99921 5.50226 42.011
6.83608 5.45886 41.7044
6.78188 5.45877 41.7158
6.71678 5.45557 41.671
6.55713 5.41292 41.3701
