3.37791 11.23 45.7681
3.31585 11.2318 45.774
3.19164 11.2352 45.7852
3.12949 11.2369 45.7905
3.06731 11.2385 45.7957
3.00511 11.2401 45.8007
2.88063 11.2433 45.8103
2.70509 11.2755 45.9699
2.64253 11.2769 45.974
2.57996 11.2783 45.9779
2.51736 11.2797 45.9817
2.45475 11.281 45.9853
2.39211 11.2824 45.9887
2.26677 11.2849 45.9951
2.15101 11.3153 46.1485
2.08808 11.3165 46.1511
1.96216 11.3187 46.1559
1.89918 11.3198 46.1581
1.83619 11.3208 46.1601
1.77318 11.3218 46.162
1.65117 11.3378 46.2395
1.5287 11.3538 46.3165
1.46542 11.3546 46.3175
1.40214 11.3554 46.3184
1.33885 11.3562 46.3192
1.21225 11.3577 46.3202
1.02838 11.3882 46.4702
0.901299 11.3894 46.4696
0.837755 11.3899 46.4691
0.774207 11.3905 46.4684
0.710658 11.391 46.4675
0.585898 11.4062 46.5407
0.460718 11.4212 46.6132
0.396958 11.4216 46.6115
0.333201 11.4219 46.6097
0.269446 11.4222 46.6078
0.14358 11.437 46.6792
0.0173107 11.4518 46.7499
-0.0466315 11.4519 46.7471
-0.110567 11.452 46.7442
-0.174495 11.4521 46.7412
-0.301412 11.4666 46.8107
-0.428716 11.481 46.8796
-0.492809 11.4809 46.8758
-0.55689 11.4808 46.8717
-0.62096 11.4806 46.8676
-0.749059 11.4802 46.8588
-0.877155 11.5089 47.0024
-0.941367 11.5085 46.9974
-1.00556 11.5082 46.9923
-1.06974 11.5079 46.987
-1.19859 11.5217 47.053
-1.3278 11.5354 47.1182
-1.3921 11.5349 47.1121
-1.45637 11.5343 47.1059
-1.52063 11.5337 47.0995
-1.65037 11.5472 47.1636
-1.78044 11.5606 47.227
-1.84479 11.5598 47.2198
-1.90912 11.5591 47.2124
-1.97342 11.5583 47.205
-2.10602 11.5862 47.3448
-2.23486 11.5844 47.3287
-2.29923 11.5835 47.3204
-2.36358 11.5825 47.312
-2.49755 11.6102 47.4506
-2.56202 11.6091 47.4417
-2.62645 11.608 47.4326
-2.69086 11.6069 47.4234
-2.95501 11.6319 47.5415
-3.01945 11.6307 47.5315
-3.08386 11.6294 47.5213
-3.28483 11.6552 47.6471
-3.41372 11.6524 47.6253
-3.54689 11.6644 47.682
-3.68032 11.6763 47.7378
-3.74476 11.6747 47.7261
-3.80915 11.6731 47.7142
-4.01246 11.6982 47.8361
-4.14126 11.6947 47.8108
-4.4744 11.7157 47.9042
-4.5387 11.7137 47.8906
-4.87273 11.7339 47.9798
-5.01488 11.7602 48.1109
-5.14344 11.7557 48.0809
8.57771 10.7172 43.7185
8.52217 10.7216 43.7391
8.46654 10.726 43.7596
8.41082 10.7303 43.7798
8.35501 10.7346 43.7999
8.29912 10.7389 43.8197
8.24313 10.7431 43.8395
8.18707 10.7474 43.859
8.13091 10.7515 43.8783
8.07468 10.7557 43.8975
8.01836 10.7598 43.9165
7.96195 10.7639 43.9354
7.90547 10.7679 43.954
7.8489 10.772 43.9725
7.79225 10.7759 43.9908
7.73552 10.7799 44.0089
7.67871 10.7838 44.0269
7.62182 10.7877 44.0447
7.56486 10.7916 44.0623
7.45069 10.7993 44.097
7.29144 10.8231 44.2155
7.09756 10.8945 44.5113
6.98131 10.9017 44.5433
6.92307 10.9053 44.559
6.86476 10.9088 44.5746
6.80639 10.9123 44.59
6.74795 10.9158 44.6052
6.68943 10.9192 44.6203
6.63085 10.9226 44.6351
6.57221 10.926 44.6498
6.51349 10.9293 44.6644
6.45472 10.9326 44.6787
6.39587 10.9359 44.6929
6.33697 10.9391 44.707
6.278 10.9424 44.7208
6.15987 10.9487 44.748
5.99295 10.9711 44.8576
5.88458 10.9903 44.9533
5.82494 10.9933 44.9659
5.7055 10.9991 44.9906
5.64569 11.002 45.0026
5.58582 11.0049 45.0146
5.52591 11.0077 45.0263
5.46593 11.0105 45.0379
5.40591 11.0133 45.0493
5.34583 11.016 45.0605
5.2857 11.0188 45.0716
5.22552 11.0214 45.0825
5.16528 11.0241 45.0933
5.05399 11.0426 45.1853
4.88145 11.0636 45.2868
4.75998 11.0685 45.3062
4.69917 11.0709 45.3157
4.63832 11.0733 45.325
4.57742 11.0757 45.3342
4.51649 11.078 45.3432
4.4555 11.0803 45.352
4.39448 11.0825 45.3607
4.27231 11.087 45.3775
4.10446 11.1204 45.5453
3.9815 11.1246 45.5606
3.91997 11.1266 45.568
3.8584 11.1286 45.5753
3.7968 11.1306 45.5823
3.73516 11.1325 45.5892
3.67348 11.1344 45.596
3.61177 11.1363 45.6026
3.49519 11.1536 45.6878
3.37809 11.1708 45.7725
3.31603 11.1726 45.7783
3.25393 11.1743 45.784
3.19181 11.176 45.7895
3.12966 11.1776 45.7948
3.06748 11.1792 45.7999
3.00527 11.1808 45.8049
2.88677 11.1976 45.8877
2.70524 11.2158 45.974
2.64268 11.2172 45.978
2.5801 11.2186 45.9819
2.5175 11.2199 45.9857
2.45488 11.2213 45.9892
2.39224 11.2226 45.9927
2.2669 11.225 45.999
2.15114 11.2552 46.1523
1.96228 11.2585 46.1597
1.8993 11.2595 46.1619
1.8363 11.2606 46.1638
-5.70395 11.7771 48.3335
-5.8323 11.772 48.3003
-5.97761 11.7978 48.4291
-6.04178 11.7952 48.4119
-6.10589 11.7925 48.3946
-6.16994 11.7898 48.3771
-6.3162 11.8155 48.505
-6.44427 11.8099 48.4689
-6.5082 11.8071 48.4507
8.35522 10.6622 43.7832
8.18735 10.6747 43.8422
8.07501 10.6829 43.8806
8.01872 10.687 43.8996
7.09807 10.8385 44.5179
6.9818 10.8456 44.5498
6.92355 10.8491 44.5655
6.86524 10.8526 44.581
6.80686 10.856 44.5964
6.74841 10.8594 44.6115
6.68989 10.8628 44.6266
6.6313 10.8662 44.6414
6.57265 10.8695 44.6561
6.51393 10.8728 44.6706
6.45514 10.8761 44.6849
6.39629 10.8793 44.6991
6.33738 10.8825 44.713
6.2784 10.8857 44.7269
6.16026 10.8919 44.754
5.99332 10.9141 44.8634
5.88495 10.9331 44.9591
5.8253 10.9361 44.9716
5.70585 10.9419 44.9962
5.64603 10.9447 45.0083
5.58616 10.9476 45.0201
5.52624 10.9504 45.0318
5.46626 10.9531 45.0434
5.40623 10.9559 45.0548
5.34614 10.9586 45.066
5.22582 10.9639 45.0879
5.16558 10.9665 45.0986
5.05428 10.9849 45.1906
4.94241 11.0031 45.282
4.88173 11.0056 45.2919
4.76025 11.0105 45.3113
4.69944 11.0128 45.3208
4.63858 11.0152 45.3301
4.57768 11.0175 45.3392
4.51674 11.0198 45.3482
4.45575 11.0221 45.357
4.39472 11.0243 45.3656
4.27254 11.0287 45.3824
4.10469 11.0618 45.5501
3.98172 11.0659 45.5653
3.92018 11.0679 45.5727
3.85861 11.0699 45.5799
3.797 11.0718 45.5869
3.73535 11.0737 45.5938
3.67368 11.0756 45.6005
3.61196 11.0775 45.6071
3.49538 11.0946 45.6923
3.37828 11.1117 45.7769
3.31621 11.1134 45.7827
3.25411 11.115 45.7883
3.19198 11.1167 45.7938
3.12982 11.1183 45.7991
3.06764 11.1199 45.8042
3.00543 11.1215 45.8092
2.88693 11.1381 45.8918
2.70539 11.1561 45.9781
2.64283 11.1575 45.9821
2.58025 11.1589 45.986
2.51764 11.1602 45.9897
2.45502 11.1615 45.9932
2.39237 11.1627 45.9966
2.26703 11.1652 46.0029
2.15127 11.195 46.1561
2.08833 11.1962 46.1588
2.02537 11.1972 46.1612
1.9624 11.1983 46.1635
1.89941 11.1993 46.1656
1.83641 11.2003 46.1676
1.7734 11.2013 46.1694
1.65139 11.217 46.2468
1.52891 11.2326 46.3236
1.46564 11.2334 46.3247
1.40235 11.2342 46.3255
1.33905 11.235 46.3262
1.21243 11.2364 46.3272
1.02857 11.2663 46.4769
0.901481 11.2674 46.4763
0.837931 11.2679 46.4757
0.774377 11.2684 46.475
0.586065 11.2838 46.5471
0.460888 11.2985 46.6195
0.397123 11.2988 46.6178
0.33336 11.2991 46.616
0.2696 11.2994 46.614
0.143739 11.3139 46.6853
0.017474 11.3284 46.7559
-0.0464733 11.3285 46.7531
-0.110414 11.3286 46.7501
-0.174347 11.3286 46.747
-0.301258 11.3428 46.8165
-0.428555 11.3569 46.8853
-0.492653 11.3568 46.8814
-0.556739 11.3567 46.8773
-0.620812 11.3565 46.8731
-0.748921 11.3561 46.8643
-0.876991 11.3842 47.0077
-0.941207 11.3838 47.0027
-1.00541 11.3835 46.9976
-1.06959 11.3831 46.9923
-1.19843 11.3967 47.0581
-1.32763 11.4101 47.1232
-1.39193 11.4095 47.1171
-1.45621 11.409 47.1108
-1.52047 11.4084 47.1044
-1.65019 11.4216 47.1684
-1.78025 11.4347 47.2316
-1.84461 11.4339 47.2244
-1.90894 11.4331 47.2171
-1.97324 11.4323 47.2096
-2.10581 11.4597 47.3492
-2.23465 11.4579 47.333
-2.29903 11.4569 47.3247
-2.36338 11.456 47.3163
-2.56179 11.4821 47.4458
-2.62622 11.481 47.4366
-2.69063 11.4798 47.4274
-2.95474 11.5043 47.5453
-3.01919 11.5031 47.5352
-3.08359 11.5017 47.5251
-3.28453 11.5271 47.6507
-3.41342 11.5242 47.6288
-3.54657 11.536 47.6853
-3.67998 11.5477 47.7411
-3.74441 11.5461 47.7293
-3.8088 11.5444 47.7174
-4.01207 11.5691 47.839
-4.14087 11.5655 47.8138
-4.26948 11.5618 47.7879
-4.41713 11.6097 47.9475
-4.47395 11.586 47.9068
-4.53824 11.584 47.8932
-4.60249 11.582 47.8795
-4.75142 11.6298 48.0382
-4.81576 11.6277 48.0238
-4.88004 11.6256 48.0094
-5.01431 11.6295 48.113
-5.15088 11.6471 48.1104
-5.22315 11.6668 48.1224
-5.28734 11.6645 48.107
-5.43085 11.6903 48.2371
-5.63938 11.7137 48.3509
-5.70364 11.7112 48.3345
-5.83199 11.7062 48.3012
-6.04144 11.7291 48.4127
-6.10555 11.7264 48.3954
-6.16959 11.7238 48.3779
-6.31582 11.7492 48.5056
-6.44388 11.7436 48.4696
-6.50781 11.7408 48.4513
8.66444 10.6465 43.8713
7.13176 10.7535 44.371
6.98229 10.7894 44.5563
6.92404 10.7929 44.572
6.86572 10.7963 44.5875
6.80733 10.7997 44.6028
6.74887 10.8031 44.6179
6.69034 10.8064 44.6329
6.63175 10.8098 44.6477
6.57309 10.813 44.6623
6.51436 10.8163 44.6768
6.45557 10.8195 44.6911
6.33779 10.8259 44.7191
6.27881 10.829 44.7329
6.18268 10.861 44.8997
6.00444 10.8701 44.9393
5.88532 10.876 44.9648
5.82567 10.8789 44.9773
5.76596 10.8818 44.9897
5.7062 10.8846 45.0019
5.64638 10.8874 45.0139
5.5865 10.8902 45.0257
5.52657 10.893 45.0374
5.46659 10.8957 45.0489
5.40655 10.8984 45.0603
5.34646 10.9011 45.0714
5.22612 10.9063 45.0933
5.05457 10.9271 45.1959
4.94269 10.9452 45.2872
4.88201 10.9476 45.2971
4.76052 10.9524 45.3164
4.6997 10.9547 45.3259
4.63884 10.9571 45.3351
4.57793 10.9594 45.3442
4.51698 10.9616 45.3531
4.45599 10.9639 45.3619
4.39496 10.9661 45.3705
4.27277 10.9704 45.3872
4.16634 11.0011 45.547
4.10491 11.0032 45.5548
3.98194 11.0072 45.57
3.9204 11.0092 45.5774
3.85882 11.0111 45.5845
3.7972 11.0131 45.5916
3.73555 11.0149 45.5984
3.67387 11.0168 45.6051
3.61215 11.0186 45.6116
3.49557 11.0356 45.6968
3.37846 11.0525 45.7813
3.31639 11.0541 45.7871
3.25428 11.0558 45.7927
3.19215 11.0574 45.7981
3.12999 11.059 45.8034
3.0678 11.0606 45.8085
3.00559 11.0621 45.8134
2.88709 11.0786 45.896
2.76808 11.095 45.978
2.70554 11.0964 45.9822
2.64298 11.0978 45.9862
2.58039 11.0991 45.99
2.51778 11.1004 45.9937
2.45515 11.1017 45.9972
2.3925 11.1029 46.0006
2.27219 11.119 46.0806
2.1514 11.1349 46.16
2.08845 11.136 46.1626
2.02549 11.1371 46.165
1.96252 11.1381 46.1673
1.89953 11.1391 46.1694
1.83652 11.1401 46.1713
1.7735 11.141 46.1731
1.65149 11.1566 46.2505
1.52902 11.172 46.3272
1.46574 11.1728 46.3282
1.40245 11.1736 46.3291
1.33915 11.1743 46.3298
-5.63908 11.6478 48.3519
-5.70334 11.6454 48.3354
-5.83168 11.6403 48.3021
-6.0411 11.663 48.4135
-6.1052 11.6604 48.3962
-6.16924 11.6577 48.3787
-6.31544 11.6828 48.5063
-6.44349 11.6773 48.4702
-6.50742 11.6745 48.452
8.57994 10.5541 43.7421
8.52437 10.5583 43.7625
8.4687 10.5626 43.7828
8.41295 10.5667 43.8029
8.35711 10.5709 43.8228
8.30119 10.575 43.8425
8.24518 10.5791 43.8621
8.1887 10.5653 43.8571
8.13255 10.5693 43.8763
8.07663 10.5912 43.9197
8.02028 10.5952 43.9386
7.96385 10.5991 43.9573
7.90734 10.603 43.9758
7.85074 10.6069 43.9941
7.79406 10.6107 44.0123
7.73731 10.6145 44.0303
7.68053 10.6363 44.0725
7.62356 10.6221 44.0658
7.56656 10.6258 44.0833
7.45235 10.6332 44.1177
7.29303 10.6564 44.2357
7.19032 10.6759 44.3367
7.13255 10.6794 44.353
6.92453 10.7366 44.5785
6.8662 10.74 44.5939
6.8078 10.7434 44.6092
6.74933 10.7467 44.6243
6.6908 10.75 44.6392
6.6322 10.7533 44.654
6.57353 10.7566 44.6686
6.5148 10.7598 44.683
6.456 10.7629 44.6972
6.33821 10.7692 44.7252
6.18308 10.804 44.9057
5.88569 10.8188 44.9706
5.82603 10.8217 44.9831
5.76632 10.8245 44.9954
5.70655 10.8273 45.0075
5.64672 10.8301 45.0195
5.58684 10.8329 45.0313
-3.55574 11.4358 47.6633
-3.69381 11.4621 47.7984
-3.7583 11.4605 47.7865
-3.82274 11.4588 47.7744
-4.02631 11.4832 47.8964
-4.15522 11.4796 47.8708
-4.28394 11.4759 47.8447
-4.48871 11.4998 47.9639
-4.55306 11.4978 47.9502
-4.61736 11.4958 47.9363
-4.75877 11.5215 48.0681
-4.88744 11.5172 48.0391
-5.02977 11.5428 48.1704
-5.15843 11.5383 48.1401
-5.22267 11.5361 48.1248
-5.28686 11.5338 48.1093
-5.49453 11.5567 48.2232
-5.5587 11.5543 48.2071
-5.70303 11.5795 48.3363
-5.76723 11.577 48.3197
-5.83137 11.5744 48.303
-6.04075 11.5969 48.4143
-6.10485 11.5943 48.3969
-6.16889 11.5916 48.3795
-6.31505 11.6165 48.507
-6.4431 11.611 48.4709
-6.50703 11.6081 48.4526
8.46887 10.4903 43.7662
8.41314 10.4944 43.7862
8.35733 10.4985 43.8061
8.30143 10.5026 43.8258
8.24544 10.5066 43.8453
8.18937 10.5106 43.8646
8.13322 10.5145 43.8838
8.07697 10.5185 43.9028
8.02065 10.5224 43.9216
7.96424 10.5263 43.9402
7.90776 10.5301 43.9587
7.85119 10.5339 43.977
6.92501 10.6804 44.585
6.86668 10.6837 44.6004
6.80827 10.6871 44.6156
6.7498 10.6904 44.6307
6.69126 10.6936 44.6456
6.63265 10.6968 44.6603
6.57397 10.7 44.6748
6.51523 10.7032 44.6892
6.45642 10.7064 44.7034
6.33862 10.7126 44.7314
6.17246 10.7343 44.8418
6.06469 10.7529 44.9381
6.0052 10.7559 44.951
5.88605 10.7616 44.9764
5.82639 10.7644 44.9889
5.76667 10.7672 45.0011
5.7069 10.77 45.0132
5.64707 10.7728 45.0252
5.58718 10.7755 45.037
5.52724 10.7782 45.0486
5.46724 10.7808 45.06
5.40719 10.7834 45.0713
5.34709 10.786 45.0824
5.22673 10.7911 45.1041
5.05515 10.8115 45.2065
4.94326 10.8292 45.2976
4.88257 10.8316 45.3075
4.82184 10.8339 45.3172
4.76106 10.8363 45.3267
4.70023 10.8385 45.3361
4.63936 10.8408 45.3453
4.57844 10.843 45.3543
4.51748 10.8452 45.3632
4.45648 10.8474 45.3719
4.39544 10.8495 45.3804
4.28139 10.8668 45.4688
4.1668 10.8839 45.5566
4.10536 10.8859 45.5644
3.98237 10.8898 45.5795
3.92082 10.8917 45.5867
3.85923 10.8936 45.5939
3.7976 10.8955 45.6008
3.67425 10.8991 45.6143
3.49594 10.9175 45.7057
3.37882 10.9341 45.7901
3.31674 10.9357 45.7958
3.25463 10.9373 45.8014
3.19249 10.9388 45.8068
3.13032 10.9404 45.812
3.06812 10.9419 45.8171
3.0059 10.9434 45.822
2.88739 10.9596 45.9044
2.76838 10.9757 45.9863
2.70584 10.977 45.9904
2.64326 10.9783 45.9943
2.58067 10.9796 45.9981
2.51805 10.9808 46.0018
2.45542 10.982 46.0053
2.39276 10.9832 46.0086
2.27245 10.999 46.0885
2.15165 11.0146 46.1677
2.0887 11.0156 46.1703
2.02573 11.0167 46.1726
1.95929 11.0374 46.2003
1.89975 11.0186 46.1769
1.83674 11.0195 46.1788
1.77015 11.0402 46.2059
1.6517 11.0357 46.2578
1.52549 11.0708 46.3601
1.46217 11.0716 46.361
1.39884 11.0723 46.3618
1.3355 11.073 46.3624
1.20879 11.0743 46.3632
1.0248 11.1035 46.5129
0.89762 11.1045 46.5121
0.834027 11.1049 46.5114
0.770431 11.1054 46.5106
0.584342 11.1341 46.658
0.456725 11.1347 46.6549
0.392919 11.135 46.6532
0.329115 11.1352 46.6513
0.265314 11.1354 46.6492
0.139394 11.1495 46.7202
0.0130156 11.1637 46.7909
-0.050972 11.1637 46.788
-0.114953 11.1638 46.785
-0.178925 11.1638 46.7818
-0.305892 11.1776 46.851
-0.433303 11.1914 46.92
-0.49744 11.1912 46.916
-0.561565 11.191 46.9118
-0.625677 11.1908 46.9075
-0.753863 11.1903 46.8985
-0.882022 11.2178 47.042
-0.946276 11.2174 47.0369
-1.01051 11.217 47.0317
-1.07473 11.2166 47.0263
-1.20362 11.2297 47.0919
-1.33293 11.2429 47.1571
-1.39727 11.2423 47.1509
-1.46159 11.2417 47.1446
-1.52588 11.2411 47.1381
-1.65565 11.2539 47.2018
-1.78582 11.2667 47.2651
-1.85022 11.2659 47.2578
-1.91458 11.2651 47.2504
-1.97892 11.2643 47.2428
-2.11157 11.291 47.3825
-2.24049 11.2892 47.3661
-2.3049 11.2882 47.3578
-2.37547 11.3082 47.3757
-2.57416 11.3338 47.5054
-2.63866 11.3326 47.4961
-2.70313 11.3315 47.4867
-2.83196 11.3291 47.4675
-2.96759 11.3555 47.6047
-3.03209 11.3542 47.5945
-3.09656 11.3528 47.5842
-3.29777 11.3777 47.71
-3.42678 11.3747 47.6879
-3.5601 11.3863 47.7444
-3.69368 11.3977 47.8002
-3.75817 11.3961 47.7882
-3.82261 11.3944 47.7762
-4.02616 11.4185 47.898
-4.15507 11.4149 47.8724
-4.28379 11.4112 47.8463
-4.48853 11.4349 47.9654
-4.55288 11.4329 47.9516
-4.61718 11.4309 47.9377
-4.75857 11.4563 48.0694
-4.82292 11.4542 48.055
-4.88723 11.4521 48.0404
-5.02954 11.4774 48.1716
-5.15819 11.473 48.1413
-5.22243 11.4707 48.126
-5.28662 11.4684 48.1105
-5.49426 11.4911 48.2243
-5.55842 11.4887 48.2082
-5.62253 11.4862 48.1919
-5.76693 11.5111 48.3206
-6.04041 11.5308 48.4151
-6.10451 11.5282 48.3977
-6.16854 11.5255 48.3802
-6.31467 11.5502 48.5077
-6.44271 11.5447 48.4715
-6.50664 11.5418 48.4532
7.01745 10.5927 44.4228
6.80874 10.6307 44.6221
6.75026 10.634 44.6371
6.69171 10.6372 44.6519
6.63309 10.6404 44.6666
6.51566 10.6467 44.6955
6.45685 10.6498 44.7096
6.36162 10.681 44.877
6.17286 10.6774 44.8478
6.06508 10.6959 44.944
6.00558 10.6987 44.9569
5.88642 10.7044 44.9822
5.82675 10.7072 44.9946
5.76703 10.71 45.0069
5.70725 10.7127 45.0189
5.64741 10.7154 45.0309
5.58752 10.7181 45.0426
5.52757 10.7207 45.0542
5.46757 10.7234 45.0656
5.40751 10.7259 45.0768
5.3474 10.7285 45.0879
5.23666 10.7463 45.1804
5.05545 10.7537 45.2118
4.94355 10.7712 45.3029
4.88285 10.7736 45.3127
4.82211 10.7759 45.3224
4.76132 10.7782 45.3319
4.70049 10.7804 45.3412
4.63962 10.7826 45.3503
4.57869 10.7848 45.3594
4.45672 10.7891 45.3769
4.28163 10.8083 45.4737
4.16703 10.8253 45.5614
4.10558 10.8273 45.5692
4.0441 10.8292 45.5768
3.98258 10.8311 45.5842
3.92103 10.833 45.5914
3.85943 10.8349 45.5985
3.79781 10.8367 45.6055
3.67445 10.8402 45.6189
3.49612 10.8585 45.7102
3.379 10.8748 45.7946
3.31692 10.8764 45.8002
3.2548 10.878 45.8058
3.13048 10.8811 45.8163
-6.04006 11.4647 48.4159
-6.10416 11.4621 48.3985
-6.1682 11.4594 48.381
-6.31429 11.4839 48.5083
-6.44232 11.4783 48.4721
-6.50624 11.4755 48.4539
8.58218 10.3908 43.7658
8.52657 10.3949 43.7861
8.47088 10.3989 43.8062
8.41509 10.403 43.8261
8.35874 10.3893 43.8214
8.30282 10.3932 43.841
8.24682 10.3972 43.8604
8.19072 10.4011 43.8797
8.13455 10.4049 43.8987
8.07829 10.4088 43.9176
8.02221 10.4304 43.9608
7.96575 10.4342 43.9794
7.90921 10.4379 43.9977
7.85259 10.4417 44.0159
7.79588 10.4454 44.034
7.7391 10.449 44.0518
7.62529 10.4563 44.087
7.56828 10.4599 44.1044
7.45401 10.467 44.1385
7.30723 10.5016 44.3242
7.19162 10.5266 44.3817
7.1338 10.53 44.3978
7.01794 10.5367 44.4294
6.9599 10.54 44.445
6.90179 10.5433 44.4604
6.80921 10.5744 44.6285
0.260895 11.0327 46.6815
-0.055608 11.0606 46.8203
-0.119627 11.0606 46.8172
-0.183637 11.0605 46.8139
-0.310722 11.0742 46.8833
-0.438193 11.0877 46.952
-0.502367 11.0875 46.948
-0.566529 11.0873 46.9438
-0.630678 11.0871 46.9394
-0.758937 11.0865 46.9302
-0.8872 11.1136 47.0739
-0.95149 11.1132 47.0687
-1.01576 11.1128 47.0634
-1.08002 11.1124 47.058
-1.20903 11.1253 47.1237
-1.33839 11.1382 47.1888
-1.40277 11.1376 47.1825
-1.46712 11.137 47.1761
-1.53145 11.1363 47.1695
-1.66134 11.149 47.2334
-1.79156 11.1615 47.2966
-1.85599 11.1607 47.2892
-1.92039 11.1599 47.2817
-1.98476 11.159 47.274
-2.11751 11.1854 47.4138
-2.24649 11.1835 47.3973
-2.31094 11.1825 47.3889
-2.37535 11.1815 47.3802
-2.57401 11.2066 47.5097
-2.63851 11.2054 47.5005
-2.70298 11.2042 47.491
-2.83181 11.2018 47.4718
-2.96741 11.2277 47.6088
-3.03191 11.2264 47.5985
-3.09638 11.225 47.5882
-3.29756 11.2494 47.7138
-3.42657 11.2464 47.6916
-3.55542 11.2434 47.6689
-3.69342 11.2689 47.8037
-3.75791 11.2672 47.7917
-3.82236 11.2656 47.7796
-4.02586 11.2892 47.9013
-4.15477 11.2856 47.8756
-4.28348 11.2819 47.8494
-4.48817 11.3051 47.9683
-4.55252 11.3031 47.9545
-4.61682 11.3011 47.9406
-4.75816 11.326 48.0721
-4.82251 11.3239 48.0576
-4.88681 11.3218 48.0431
-5.02907 11.3466 48.174
-5.15771 11.3422 48.1437
-5.22195 11.3399 48.1283
-5.28613 11.3376 48.1128
-5.49371 11.3598 48.2264
-5.62198 11.355 48.194
-5.68602 11.3526 48.1776
-6.03972 11.3986 48.4167
-6.10382 11.396 48.3993
-6.16785 11.3934 48.3818
-6.44194 11.412 48.4728
8.52672 10.3228 43.7695
8.47105 10.3267 43.7895
8.4153 10.3307 43.8094
8.35945 10.3346 43.8291
8.30352 10.3385 43.8487
8.2475 10.3424 43.868
8.1914 10.3463 43.8872
8.13522 10.3501 43.9062
8.07895 10.3539 43.9251
8.02259 10.3576 43.9438
7.96616 10.3614 43.9623
7.90964 10.3651 43.9806
7.85304 10.3688 43.9987
6.69262 10.5243 44.6647
6.63399 10.5274 44.6793
6.51653 10.5335 44.708
6.36247 10.5672 44.8892
6.18468 10.576 44.9297
6.06585 10.5817 44.9559
6.00635 10.5845 44.9687
5.88716 10.59 44.9939
5.82748 10.5927 45.0062
5.76774 10.5954 45.0184
5.70795 10.598 45.0304
5.64809 10.6007 45.0422
5.58819 10.6033 45.0539
5.52823 10.6059 45.0654
5.40815 10.6109 45.0879
5.34803 10.6134 45.0989
5.23727 10.6309 45.1913
5.06538 10.6506 45.2934
4.94411 10.6552 45.3134
4.88341 10.6575 45.3232
4.82266 10.6597 45.3328
4.76186 10.662 45.3422
4.70102 10.6641 45.3515
4.64013 10.6663 45.3606
4.5792 10.6684 45.3695
4.45527 10.6915 45.4119
4.27186 10.6976 45.4367
4.16535 10.7271 45.5964
4.10603 10.7099 45.5788
4.04233 10.7309 45.6116
3.98077 10.7328 45.6189
3.91917 10.7346 45.6261
3.85753 10.7364 45.6331
3.79586 10.7382 45.64
3.67241 10.7416 45.6532
3.50091 10.7725 45.8172
3.37674 10.7757 45.8289
3.31461 10.7772 45.8345
3.25245 10.7788 45.8399
3.19026 10.7803 45.8452
3.12804 10.7817 45.8503
3.0658 10.7832 45.8553
3.00353 10.7846 45.8601
2.88495 10.8003 45.9423
2.76583 10.816 46.0243
2.70323 10.8173 46.0283
2.64062 10.8185 46.0322
2.57797 10.8198 46.0359
2.51531 10.8209 46.0394
2.45263 10.8221 46.0428
2.38993 10.8232 46.046
2.26954 10.8385 46.1257
2.14863 10.8538 46.2051
2.08564 10.8548 46.2075
2.02262 10.8557 46.2098
1.9596 10.8566 46.2119
1.8335 10.8584 46.2157
1.6524 10.8874 46.3689
1.52199 10.9087 46.3969
1.46243 10.8896 46.372
1.39909 10.8902 46.3727
1.33186 10.9108 46.399
1.20507 10.912 46.3995
1.02094 10.9404 46.5493
0.957307 10.9409 46.5489
0.893674 10.9413 46.5483
0.830038 10.9417 46.5475
0.7664 10.9421 46.5466
0.580175 10.9702 46.694
0.452474 10.9707 46.6908
0.388626 10.9709 46.6889
0.32478 10.9711 46.6869
0.260937 10.9712 46.6847
0.134902 10.985 46.7559
0.00846402 10.9988 46.8264
-0.0555645 10.9988 46.8234
-0.119586 10.9987 46.8203
-0.183599 10.9987 46.817
-0.310681 11.0122 46.8864
-0.438149 11.0256 46.955
-0.502326 11.0254 46.951
-0.56649 11.0252 46.9467
-0.630642 11.0249 46.9423
-0.758905 11.0243 46.9331
-0.887156 11.0512 47.0767
-0.951448 11.0508 47.0715
-1.01572 11.0503 47.0662
-1.07998 11.0499 47.0607
-1.20899 11.0627 47.1264
-1.33835 11.0754 47.1914
-1.40272 11.0748 47.1851
-1.46708 11.0742 47.1787
-1.53141 11.0736 47.1721
-1.66129 11.0861 47.2359
-1.79151 11.0985 47.2991
-1.85594 11.0977 47.2917
-1.92034 11.0968 47.2841
-1.98471 11.096 47.2764
-2.11745 11.1221 47.4162
-2.24643 11.1202 47.3997
-2.31088 11.1192 47.3912
-2.3753 11.1181 47.3825
-2.57394 11.1429 47.5119
-2.63844 11.1418 47.5026
-2.70291 11.1406 47.4932
-2.83174 11.1382 47.4739
-2.96732 11.1638 47.6108
-3.03183 11.1625 47.6006
-3.0963 11.1611 47.5902
-3.16073 11.1598 47.5797
-3.29745 11.1853 47.7157
-3.42647 11.1823 47.6935
-3.55532 11.1792 47.6707
-3.6933 11.2045 47.8054
-3.75779 11.2028 47.7935
-3.82223 11.2012 47.7814
-4.02571 11.2246 47.9029
-4.15462 11.221 47.8772
-4.28333 11.2173 47.851
-4.488 11.2402 47.9698
-4.55235 11.2382 47.9559
-4.61664 11.2362 47.942
-4.75795 11.2609 48.0734
-4.88661 11.2567 48.0444
-5.15748 11.2768 48.1449
-5.22171 11.2745 48.1295
-5.28589 11.2722 48.114
-5.49344 11.2942 48.2274
-5.6217 11.2894 48.195
-5.68574 11.2869 48.1786
-5.74973 11.2845 48.1621
7.01893 10.4246 44.4428
6.96087 10.4279 44.4583
6.90275 10.4311 44.4736
6.84456 10.4342 44.4887
6.69308 10.4678 44.6711
6.63444 10.4709 44.6857
6.51697 10.4769 44.7143
6.36289 10.5103 44.8954
6.24441 10.5161 44.9225
6.18508 10.5189 44.9358
6.06624 10.5245 44.9619
6.00673 10.5273 44.9747
5.94716 10.53 44.9873
5.88753 10.5327 44.9998
5.82784 10.5354 45.0121
5.76809 10.5381 45.0242
5.70829 10.5407 45.0362
5.64844 10.5433 45.048
5.58853 10.5459 45.0596
5.52856 10.5484 45.0711
5.40847 10.5534 45.0935
5.23758 10.5731 45.1968
5.12624 10.5903 45.2886
5.06567 10.5926 45.2988
4.94439 10.5972 45.3187
4.88368 10.5994 45.3284
4.82293 10.6017 45.338
4.76212 10.6038 45.3474
4.70128 10.606 45.3566
4.64038 10.6081 45.3657
-1.92029 11.0338 47.2866
-1.98467 11.0329 47.2789
-2.24638 11.0568 47.402
-2.31082 11.0558 47.3935
-2.37524 11.0548 47.3848
-2.57386 11.0793 47.5141
-2.63837 11.0782 47.5048
-2.70284 11.077 47.4954
-2.83168 11.0745 47.476
-2.96723 11.0999 47.6129
-3.03174 11.0986 47.6026
-3.09621 11.0973 47.5922
-3.16064 11.0959 47.5817
-3.29734 11.1211 47.7176
-3.42636 11.1181 47.6954
-3.55521 11.1151 47.6726
-3.69317 11.1401 47.8072
-3.75766 11.1384 47.7952
-3.8221 11.1367 47.7831
-4.02556 11.1599 47.9045
-4.15447 11.1563 47.8788
-4.28318 11.1526 47.8526
-4.48782 11.1753 47.9712
-4.55217 11.1733 47.9574
-4.61646 11.1713 47.9434
-4.75775 11.1957 48.0748
-4.8221 11.1936 48.0603
-4.8864 11.1915 48.0457
-5.0286 11.2158 48.1764
-5.15724 11.2114 48.146
-5.22148 11.2091 48.1307
-5.28566 11.2069 48.1151
-5.34978 11.2046 48.0995
-5.49317 11.2286 48.2285
-5.62143 11.2238 48.196
-5.68547 11.2213 48.1796
-5.74945 11.2189 48.1631
-6.03903 11.2665 48.4183
-6.10312 11.2638 48.4009
-6.16715 11.2612 48.3833
-6.44116 11.2794 48.4741
-6.50507 11.2766 48.4558
8.63998 10.2234 43.7693
8.58381 10.2098 43.7651
8.5282 10.2137 43.7852
8.47251 10.2176 43.8052
8.41673 10.2215 43.825
8.36087 10.2253 43.8446
8.30492 10.2291 43.864
8.24888 10.2329 43.8833
8.19276 10.2366 43.9024
8.13655 10.2404 43.9213
8.08026 10.2441 43.9401
8.02389 10.2477 43.9586
7.96744 10.2514 43.977
7.9109 10.255 43.9953
7.85428 10.2585 44.0133
7.79759 10.2621 44.0312
7.74081 10.2656 44.0489
7.68396 10.2691 44.0665
7.62704 10.2904 44.1084
7.56999 10.2938 44.1256
7.45567 10.3007 44.1595
7.29623 10.3224 44.2768
7.19344 10.3409 44.3772
7.13563 10.3441 44.3932
7.01942 10.3686 44.4495
6.96136 10.3718 44.4649
6.90323 10.3749 44.4802
6.84503 10.3781 44.4953
6.78676 10.3811 44.5102
6.72842 10.3842 44.525
1.64886 10.7859 46.4024
1.52214 10.7873 46.4044
1.45877 10.788 46.4052
1.39538 10.7886 46.4059
1.33199 10.7892 46.4064
1.20519 10.7904 46.4068
1.08469 10.8178 46.5567
1.02106 10.8183 46.5564
0.957427 10.8187 46.5559
0.893788 10.8191 46.5553
0.830145 10.8195 46.5545
0.7665 10.8198 46.5536
0.580286 10.8473 46.7007
0.452573 10.8477 46.6974
0.388718 10.8479 46.6955
0.324867 10.8481 46.6935
0.261018 10.8482 46.6913
0.134986 10.8617 46.7623
0.00855252 10.8752 46.8327
-0.0554815 10.8751 46.8297
-0.119508 10.8751 46.8265
-0.183527 10.875 46.8232
-0.310604 10.8882 46.8925
-0.438066 10.9013 46.961
-0.502247 10.9011 46.9569
-0.566417 10.9009 46.9526
-0.630573 10.9006 46.9482
-0.758846 10.9 46.939
-0.887073 10.9263 47.0824
-0.95137 10.9258 47.0772
-1.01565 10.9254 47.0718
-1.07991 10.9249 47.0663
-1.20891 10.9375 47.1318
-1.33826 10.9499 47.1967
-1.40264 10.9493 47.1904
-1.467 10.9487 47.1839
-1.53133 10.948 47.1773
-1.66121 10.9602 47.241
-1.79141 10.9723 47.304
-1.85584 10.9715 47.2966
-1.92025 10.9707 47.289
-1.98462 10.9698 47.2813
-2.11733 10.9954 47.4209
-2.24632 10.9935 47.4043
-2.31077 10.9925 47.3958
-2.37519 10.9914 47.3871
-2.57379 11.0157 47.5163
-2.6383 11.0145 47.507
-2.70277 11.0134 47.4975
-2.83161 11.0109 47.4782
-2.96715 11.036 47.6149
-3.03165 11.0347 47.6046
-3.09612 11.0333 47.5942
-3.29724 11.0569 47.7195
-3.42626 11.054 47.6973
-3.55511 11.0509 47.6744
-3.69304 11.0756 47.809
-3.75753 11.074 47.797
-3.82198 11.0723 47.7848
-3.88638 11.0706 47.7726
-4.02541 11.0952 47.9061
-4.15432 11.0916 47.8804
-4.28303 11.0879 47.8542
-4.48764 11.1103 47.9727
-4.55199 11.1084 47.9588
-4.61629 11.1064 47.9449
-4.75754 11.1305 48.0761
-4.8219 11.1285 48.0616
-4.88619 11.1263 48.047
-5.01463 11.122 48.0174
-5.22124 11.1437 48.1318
-5.28542 11.1415 48.1163
-5.34954 11.1392 48.1006
-5.4929 11.1629 48.2295
-5.62115 11.1581 48.197
-5.68519 11.1557 48.1806
-5.74917 11.1533 48.1641
-5.95759 11.1742 48.2745
8.52895 10.1592 43.7931
8.47324 10.163 43.813
8.41746 10.1668 43.8328
8.36158 10.1706 43.8523
8.30562 10.1744 43.8717
8.24957 10.1781 43.891
8.19344 10.1818 43.91
8.13722 10.1855 43.9289
8.08092 10.1891 43.9476
8.02454 10.1927 43.9661
7.96808 10.1963 43.9845
6.72888 10.3279 44.5315
6.54101 10.3877 44.8661
6.42289 10.3935 44.8941
6.35241 10.3843 44.8381
6.24523 10.402 44.9347
6.18588 10.4048 44.9479
6.06701 10.4103 44.9739
6.00749 10.4129 44.9866
5.9479 10.4156 44.9991
5.88826 10.4182 45.0115
5.82856 10.4208 45.0238
5.7688 10.4234 45.0358
5.70899 10.426 45.0477
5.5892 10.431 45.071
5.40774 10.4568 45.1297
5.23671 10.4762 45.2327
5.12528 10.4932 45.3247
5.06467 10.4955 45.3348
5.004 10.4977 45.3448
4.94329 10.4999 45.3546
4.88253 10.5021 45.3642
4.82173 10.5042 45.3737
4.76088 10.5064 45.383
4.69999 10.5084 45.3922
4.63905 10.5105 45.4012
4.57806 10.5126 45.41
4.46446 10.529 45.4988
4.35232 10.5264 45.562
4.28889 10.5473 45.5955
4.166 10.551 45.6112
4.1045 10.5529 45.6187
4.04296 10.5547 45.6262
3.98138 10.5564 45.6334
3.91976 10.5582 45.6405
3.85811 10.5599 45.6475
3.79405 10.5806 45.6795
3.67777 10.5966 45.7653
3.49887 10.614 45.8565
3.3746 10.6171 45.868
3.31242 10.6185 45.8735
3.25021 10.62 45.8788
3.18797 10.6214 45.884
3.06342 10.6242 45.8939
2.88843 10.6537 46.0544
2.76321 10.6562 46.0627
2.70057 10.6574 46.0666
2.6379 10.6585 46.0704
2.57521 10.6597 46.074
2.44978 10.6619 46.0808
2.38703 10.6629 46.0839
2.27158 10.6908 46.2377
2.14555 10.6927 46.2428
2.0825 10.6936 46.2452
2.01944 10.6945 46.2474
1.95637 10.6954 46.2494
1.83018 10.697 46.253
1.64894 10.7253 46.4062
1.52222 10.7266 46.4082
1.45884 10.7273 46.409
1.39545 10.7279 46.4096
1.33206 10.7285 46.4101
1.20863 10.7427 46.4855
1.08476 10.7567 46.5603
1.02112 10.7572 46.56
0.957485 10.7576 46.5595
0.893842 10.758 46.5588
0.830197 10.7583 46.558
0.766549 10.7587 46.5571
0.580339 10.7859 46.7041
0.45262 10.7863 46.7008
0.388763 10.7864 46.6989
0.324908 10.7866 46.6968
0.261056 10.7867 46.6946
0.135027 10.8001 46.7656
0.00859473 10.8133 46.8359
-0.055442 10.8133 46.8328
-0.119471 10.8132 46.8297
-0.183493 10.8132 46.8263
-0.310567 10.8262 46.8955
-0.438026 10.8392 46.964
-0.50221 10.839 46.9599
-0.566382 10.8387 46.9556
-0.630541 10.8384 46.9512
-0.758819 10.8378 46.9419
-0.887033 10.8638 47.0852
-0.951332 10.8634 47.08
-1.01561 10.8629 47.0746
-1.07988 10.8624 47.0691
-1.20887 10.8749 47.1346
-1.33822 10.8872 47.1994
-1.4026 10.8865 47.1931
-1.46696 10.8859 47.1866
-1.5313 10.8852 47.1799
-1.66116 10.8973 47.2436
-1.79136 10.9093 47.3065
-1.85579 10.9084 47.2991
-1.9202 10.9076 47.2915
-1.98458 10.9067 47.2838
-2.11727 10.9321 47.4233
-2.24626 10.9301 47.4066
-2.31071 10.9291 47.3981
-2.37513 10.928 47.3894
-2.57372 10.9521 47.5185
-2.63823 10.9509 47.5092
-2.7027 10.9497 47.4997
-2.83154 10.9473 47.4803
-2.96706 10.9721 47.617
-3.03157 10.9708 47.6067
-3.09604 10.9694 47.5963
-3.16047 10.9681 47.5857
7.02041 10.2565 44.4629
6.96233 10.2596 44.4783
6.90418 10.2626 44.4934
6.84597 10.2657 44.5085
6.78769 10.2687 44.5233
6.72933 10.2717 44.538
6.67092 10.2746 44.5525
6.42331 10.3366 44.9003
6.36415 10.3394 44.914
6.24563 10.345 44.9409
6.18628 10.3477 44.954
6.12687 10.3504 44.967
1.45891 10.6665 46.4128
1.39552 10.6671 46.4134
1.33212 10.6677 46.4138
1.20869 10.6817 46.4892
1.08482 10.6956 46.5639
1.02118 10.6961 46.5635
0.957541 10.6965 46.563
0.893895 10.6968 46.5624
0.830247 10.6972 46.5615
0.766595 10.6975 46.5606
0.580391 10.7244 46.7075
0.452666 10.7248 46.7041
0.388805 10.7249 46.7022
0.324948 10.7251 46.7001
0.261093 10.7251 46.6979
0.135065 10.7384 46.7688
0.00863555 10.7515 46.839
-0.0554039 10.7515 46.836
-0.119436 10.7514 46.8328
-0.18346 10.7513 46.8295
-0.310532 10.7642 46.8986
-0.437988 10.777 46.967
-0.502174 10.7768 46.9629
-0.566349 10.7765 46.9586
-0.63051 10.7762 46.9541
-0.758793 10.7755 46.9448
-0.886995 10.8013 47.088
-0.951296 10.8009 47.0828
-1.01558 10.8004 47.0774
-1.07985 10.7999 47.0718
-1.20884 10.8122 47.1373
-1.33817 10.8244 47.2021
-1.40256 10.8237 47.1957
-1.46692 10.8231 47.1892
-1.53126 10.8224 47.1826
-1.66112 10.8344 47.2462
-1.79132 10.8462 47.309
-1.85575 10.8454 47.3016
-1.92016 10.8445 47.294
-1.98454 10.8436 47.2862
-2.11721 10.8687 47.4257
-2.24621 10.8668 47.409
-2.31066 10.8657 47.4004
-2.37508 10.8647 47.3917
-2.57365 10.8884 47.5207
-2.63816 10.8873 47.5114
-2.70263 10.8861 47.5019
-2.83148 10.8836 47.4825
-2.96698 10.9082 47.619
-3.03148 10.9069 47.6087
-3.09596 10.9055 47.5983
-3.16039 10.9041 47.5877
-3.29703 10.9286 47.7234
-3.42605 10.9256 47.701
-3.5549 10.9225 47.6782
-3.6928 10.9468 47.8125
-3.75729 10.9451 47.8005
-3.82173 10.9435 47.7883
-3.88613 10.9418 47.776
-4.02512 10.9659 47.9094
-4.15402 10.9623 47.8836
-4.28273 10.9586 47.8573
-4.4873 10.9805 47.9756
-4.55164 10.9785 47.9618
-4.61594 10.9765 47.9477
-4.75714 11.0002 48.0788
-4.82149 10.9981 48.0643
-4.88578 10.996 48.0496
-5.01421 10.9917 48.0199
-5.22076 11.013 48.1342
-5.28494 11.0107 48.1186
-5.34906 11.0084 48.1029
-5.47712 11.0037 48.0712
-5.62061 11.0269 48.1991
-5.68464 11.0245 48.1826
-5.74861 11.022 48.1661
-5.95697 11.0426 48.2762
-6.1837 11.1068 48.4412
-6.45801 11.1245 48.532
-6.52196 11.1218 48.5135
8.67143 10.0824 43.9265
8.58607 10.0463 43.789
8.53043 10.05 43.809
8.47471 10.0538 43.8288
8.4189 10.0575 43.8484
8.363 10.0612 43.8679
8.30702 10.0648 43.8872
8.25095 10.0685 43.9063
8.1948 10.0721 43.9253
8.13856 10.0756 43.944
8.08224 10.0792 43.9626
8.02584 10.0827 43.9811
7.96936 10.0862 43.9993
7.9128 10.0897 44.0174
7.85615 10.0931 44.0353
7.79954 10.1142 44.0777
7.7427 10.1176 44.0953
7.62879 10.1243 44.13
7.57171 10.1276 44.147
7.47021 10.1456 44.2482
7.29783 10.1553 44.2975
7.19501 10.1732 44.3977
7.13717 10.1763 44.4135
7.0209 10.2004 44.4696
6.96282 10.2035 44.485
6.90466 10.2065 44.5001
6.84644 10.2095 44.5151
6.78815 10.2124 44.5299
6.72979 10.2154 44.5445
6.67136 10.2183 44.559
4.34869 10.4471 45.6231
4.28725 10.4489 45.6311
4.16427 10.4525 45.6466
4.10272 10.4543 45.6541
4.04113 10.4561 45.6614
3.9795 10.4578 45.6686
3.85614 10.4611 45.6825
3.79441 10.4628 45.6892
3.67812 10.4784 45.7748
3.5613 10.494 45.8599
3.4992 10.4955 45.8658
3.43707 10.4969 45.8716
3.37491 10.4984 45.8772
3.31272 10.4998 45.8827
3.25051 10.5012 45.888
3.18826 10.5025 45.8931
3.06369 10.5052 45.9029
2.88869 10.5341 46.0631
2.76346 10.5365 46.0714
2.70081 10.5376 46.0752
2.63813 10.5388 46.0789
2.57544 10.5399 46.0825
2.44998 10.542 46.0892
2.27179 10.5703 46.2458
2.14574 10.5721 46.2509
2.08269 10.573 46.2532
2.01962 10.5738 46.2554
1.95654 10.5747 46.2574
1.83034 10.5762 46.2609
1.6491 10.6039 46.4139
1.52236 10.6052 46.4158
1.45898 10.6058 46.4165
1.39558 10.6064 46.4171
1.33218 10.6069 46.4175
1.20875 10.6208 46.4928
1.08488 10.6346 46.5675
1.02124 10.635 46.5671
0.957596 10.6353 46.5666
0.893947 10.6357 46.5659
0.830295 10.636 46.5651
0.766641 10.6363 46.5641
0.580442 10.663 46.7109
0.45271 10.6633 46.7075
0.388847 10.6634 46.7056
0.324986 10.6635 46.7035
0.261129 10.6636 46.7012
0.135103 10.6767 46.7721
0.00867495 10.6897 46.8422
-0.0553672 10.6896 46.8392
-0.119402 10.6895 46.836
-0.183429 10.6894 46.8326
-0.310498 10.7022 46.9017
-0.437951 10.7149 46.97
-0.50214 10.7146 46.9659
-0.566317 10.7143 46.9616
-0.630481 10.714 46.9571
-0.758768 10.7133 46.9477
-0.886958 10.7389 47.0909
-0.951261 10.7384 47.0856
-1.01555 10.7379 47.0802
-1.07982 10.7374 47.0746
-1.2088 10.7496 47.14
-1.33813 10.7616 47.2047
-1.40252 10.761 47.1984
-1.46688 10.7603 47.1919
-1.53123 10.7596 47.1852
-1.66108 10.7714 47.2487
-1.79127 10.7831 47.3116
-1.85571 10.7823 47.3041
-1.92011 10.7814 47.2965
-1.9845 10.7805 47.2887
-2.11716 10.8054 47.428
-2.24615 10.8034 47.4113
-2.31061 10.8023 47.4028
-2.37503 10.8013 47.3941
-2.57359 10.8248 47.5229
-2.63809 10.8236 47.5136
-2.70257 10.8224 47.5041
-2.83141 10.8199 47.4846
-2.96689 10.8443 47.6211
-3.0314 10.843 47.6108
-3.09587 10.8416 47.6003
-3.16031 10.8402 47.5897
-3.29693 10.8644 47.7253
-3.42595 10.8614 47.7029
-3.5548 10.8584 47.68
-3.75716 10.8807 47.8022
-3.82161 10.879 47.7901
-3.88601 10.8773 47.7777
-4.02497 10.9012 47.911
-4.15387 10.8976 47.8852
-5.01401 10.9266 48.0212
-5.22053 10.9476 48.1354
-5.2847 10.9453 48.1198
-5.34882 10.943 48.1041
-5.47687 10.9384 48.0723
-5.62033 10.9613 48.2001
-5.68436 10.9589 48.1836
-5.74834 10.9564 48.1671
-5.95665 10.9767 48.2771
-6.08446 10.9716 48.2425
8.58683 9.99171 43.797
8.53118 9.99543 43.817
8.47545 9.99912 43.8367
8.41962 10.0028 43.8563
8.36372 10.0064 43.8757
8.30772 10.01 43.895
8.25164 10.0136 43.914
8.19548 10.0172 43.9329
8.13924 10.0207 43.9517
8.08291 10.0242 43.9702
8.0265 10.0277 43.9886
7.97 10.0311 44.0068
7.91343 10.0346 44.0248
7.85677 10.0379 44.0427
7.80004 10.0413 44.0604
7.74323 10.0446 44.078
6.55475 10.1676 44.5939
6.42417 10.2227 44.9129
6.36499 10.2255 44.9265
6.24645 10.2308 44.9532
6.18708 10.2335 44.9663
6.12766 10.2361 44.9792
6.06719 10.2571 45.0172
6.00863 10.2413 45.0046
5.94797 10.2622 45.0422
5.88827 10.2648 45.0545
5.82852 10.2673 45.0666
5.7687 10.2697 45.0785
5.70883 10.2722 45.0903
5.58893 10.277 45.1133
5.41862 10.2959 45.2174
5.30775 10.3126 45.31
5.24727 10.3148 45.3206
5.12615 10.3192 45.3411
5.06552 10.3214 45.3511
5.00484 10.3235 45.361
4.94411 10.3256 45.3707
4.88334 10.3277 45.3803
4.82252 10.3297 45.3897
4.75986 10.3505 45.4242
4.63792 10.3544 45.4421
4.46317 10.3724 45.5398
4.34891 10.3884 45.6282
4.28747 10.3902 45.6362
4.16447 10.3938 45.6516
4.10292 10.3955 45.6591
4.04133 10.3972 45.6664
3.9797 10.3989 45.6735
3.85633 10.4022 45.6873
3.79459 10.4038 45.694
3.67829 10.4193 45.7796
3.56146 10.4347 45.8646
3.49936 10.4361 45.8705
3.43723 10.4376 45.8763
3.37507 10.439 45.8818
3.31287 10.4404 45.8873
3.25065 10.4418 45.8925
3.1884 10.4431 45.8976
3.06382 10.4457 45.9074
2.88882 10.4743 46.0675
2.76358 10.4767 46.0757
2.70093 10.4778 46.0795
2.63825 10.4789 46.0832
2.57555 10.4799 46.0868
2.45009 10.482 46.0934
2.27189 10.51 46.2499
2.14583 10.5118 46.255
2.08278 10.5127 46.2573
2.01971 10.5135 46.2594
1.95662 10.5143 46.2614
1.83041 10.5158 46.2648
1.64918 10.5432 46.4177
1.52243 10.5445 46.4196
1.45904 10.545 46.4203
1.39565 10.5456 46.4209
1.33224 10.5461 46.4213
1.20881 10.5598 46.4965
1.08494 10.5735 46.5711
1.0213 10.5738 46.5707
0.95765 10.5742 46.5702
0.893997 10.5745 46.5695
0.830342 10.5749 46.5686
0.766685 10.5751 46.5676
0.58049 10.6015 46.7144
0.452753 10.6018 46.7109
0.388887 10.6019 46.7089
0.325023 10.602 46.7068
0.135139 10.615 46.7753
0.00871292 10.6279 46.8454
-0.055332 10.6278 46.8424
-0.11937 10.6277 46.8391
-0.183399 10.6276 46.8358
-0.310465 10.6402 46.9048
-0.437915 10.6527 46.9731
-0.502107 10.6525 46.9689
-0.566286 10.6522 46.9646
-0.630453 10.6518 46.9601
-0.758745 10.6511 46.9507
-0.886922 10.6764 47.0937
-0.951228 10.6759 47.0885
-1.01552 10.6754 47.083
-1.07979 10.6749 47.0774
-1.20877 10.6869 47.1428
-1.3381 10.6988 47.2074
-1.53119 10.6968 47.1878
-1.66104 10.7085 47.2513
-6.31104 10.9692 48.4072
-6.45734 10.9918 48.5335
7.02189 10.0882 44.4832
6.96379 10.0912 44.4984
6.90562 10.0941 44.5135
6.84738 10.097 44.5284
6.78907 10.0999 44.5431
6.7307 10.1027 44.5576
6.67226 10.1056 44.572
6.55518 10.1111 44.6003
6.49654 10.1139 44.6142
6.36541 10.1684 44.9327
2.88895 10.4145 46.0719
2.7637 10.4168 46.08
2.70104 10.4179 46.0839
2.63836 10.419 46.0875
2.57566 10.42 46.0911
2.45019 10.422 46.0976
2.27199 10.4498 46.2541
2.14593 10.4515 46.2591
2.08287 10.4523 46.2613
2.01979 10.4531 46.2634
1.95671 10.4539 46.2654
1.83049 10.4554 46.2688
1.64925 10.4825 46.4216
1.5225 10.4837 46.4234
1.45911 10.4843 46.4241
1.39571 10.4848 46.4246
1.3323 10.4853 46.425
1.20887 10.4989 46.5002
1.085 10.5124 46.5748
1.02135 10.5127 46.5743
0.957702 10.5131 46.5738
0.894046 10.5134 46.573
0.830388 10.5137 46.5722
0.766727 10.5139 46.5711
0.580538 10.54 46.7178
0.452794 10.5403 46.7143
0.388925 10.5404 46.7123
0.325059 10.5405 46.7102
0.261196 10.5405 46.7079
0.135173 10.5533 46.7786
0.00874942 10.566 46.8486
-0.0552982 10.5659 46.8456
-0.119339 10.5658 46.8423
-0.183371 10.5657 46.8389
-0.310434 10.5782 46.9079
-0.437881 10.5906 46.9761
-0.502075 10.5903 46.9719
-0.566257 10.59 46.9676
-0.630426 10.5896 46.9631
-0.758723 10.5889 46.9536
-0.886888 10.6139 47.0966
-0.951196 10.6134 47.0913
-1.01549 10.6129 47.0859
-1.07976 10.6124 47.0803
-1.20873 10.6243 47.1455
-1.33806 10.636 47.2101
-1.40245 10.6354 47.2037
-1.46682 10.6347 47.1972
-1.53116 10.6339 47.1905
-1.66101 10.6455 47.2539
-1.79118 10.6569 47.3166
-1.85562 10.6561 47.3091
-1.92003 10.6552 47.3015
-1.98442 10.6543 47.2937
-2.11704 10.6786 47.4328
-2.24605 10.6766 47.416
-2.3105 10.6756 47.4074
-2.37493 10.6745 47.3987
-2.57345 10.6975 47.5274
-2.63796 10.6963 47.518
-2.70244 10.6951 47.5084
-2.83129 10.6926 47.4889
-2.96673 10.7165 47.6252
-3.03124 10.7151 47.6149
-3.09571 10.7138 47.6044
-3.16015 10.7124 47.5938
-3.29673 10.7361 47.7291
-3.43271 10.7541 47.7337
-3.56162 10.751 47.7106
-3.76411 10.773 47.8329
-3.82859 10.7713 47.8206
-3.89302 10.7696 47.8082
-4.03208 10.7931 47.9417
-4.16849 10.8107 47.9429
-4.29731 10.807 47.9163
-4.43771 10.8303 48.0487
-4.50216 10.8284 48.0348
-4.56655 10.8264 48.0208
-4.6309 10.8244 48.0066
-4.77233 10.8476 48.138
-4.90108 10.8434 48.1085
-5.02961 10.8391 48.0785
-5.23643 10.8598 48.1929
-5.30065 10.8576 48.1772
-5.36482 10.8553 48.1613
-5.48468 10.8291 48.1019
-5.62824 10.8517 48.2298
-5.69229 10.8492 48.2133
-5.75628 10.8468 48.1966
-5.96472 10.8667 48.3066
-6.09256 10.8616 48.2719
-6.457 10.9254 48.5343
8.58834 9.88255 43.8131
8.53267 9.88617 43.8329
8.47692 9.88977 43.8526
8.42107 9.89333 43.8721
8.36515 9.89687 43.8914
8.30913 9.90039 43.9105
8.25303 9.90387 43.9295
8.19685 9.90733 43.9483
8.14058 9.91077 43.9669
8.08423 9.91418 43.9854
8.0278 9.91756 44.0037
7.97129 9.92091 44.0218
7.9147 9.92424 44.0397
7.85802 9.92754 44.0575
7.80127 9.93081 44.0751
7.74444 9.93406 44.0926
7.68753 9.93728 44.1098
7.63054 9.9581 44.1517
7.57344 9.96128 44.1686
7.47189 9.9787 44.2695
7.29944 9.98795 44.3184
7.19657 10.0053 44.4183
7.13871 10.0083 44.434
7.02239 10.0321 44.49
6.96428 10.035 44.5052
6.9061 10.0379 44.5202
6.84785 10.0407 44.535
6.78954 10.0436 44.5497
6.73115 10.0464 44.5642
6.67271 10.0492 44.5786
6.55561 10.0547 44.6068
6.40217 10.0857 44.7862
4.94296 10.228 45.407
4.88214 10.23 45.4165
4.82127 10.232 45.4258
4.76036 10.2339 45.4349
4.6384 10.2378 45.4527
4.53345 10.2656 45.6138
4.46363 10.2554 45.5502
4.34935 10.271 45.6385
4.2879 10.2728 45.6463
4.22641 10.2745 45.6541
4.16489 10.2762 45.6617
4.10332 10.2779 45.6691
4.04172 10.2795 45.6763
3.98008 10.2812 45.6834
3.85669 10.2843 45.6971
3.79494 10.2859 45.7037
3.68592 10.3132 45.8619
3.5618 10.3161 45.8741
3.49969 10.3175 45.8799
3.43755 10.3189 45.8856
3.37537 10.3203 45.8911
3.31317 10.3216 45.8965
3.25094 10.3229 45.9017
3.18868 10.3242 45.9068
3.06408 10.3267 45.9164
2.95167 10.3536 46.072
2.88908 10.3547 46.0763
2.76382 10.3569 46.0844
2.70116 10.358 46.0882
2.63847 10.3591 46.0919
2.57576 10.3601 46.0953
2.45029 10.362 46.1018
2.27209 10.3895 46.2582
2.14602 10.3912 46.2631
2.08296 10.392 46.2654
2.01988 10.3928 46.2675
1.95679 10.3935 46.2694
1.83056 10.395 46.2728
1.71269 10.4212 46.4243
1.64933 10.4218 46.4254
1.58595 10.4224 46.4264
1.52257 10.423 46.4272
1.45917 10.4235 46.4279
1.39577 10.424 46.4284
1.33236 10.4245 46.4288
1.20893 10.4379 46.5039
1.08506 10.4512 46.5784
1.02141 10.4516 46.578
0.957752 10.4519 46.5774
0.894093 10.4522 46.5766
0.830432 10.4525 46.5757
0.766768 10.4527 46.5747
0.580584 10.4785 46.7212
0.452834 10.4788 46.7177
0.388962 10.4789 46.7157
0.325093 10.4789 46.7135
0.261227 10.479 46.7112
0.135206 10.4916 46.7819
0.00878444 10.5042 46.8519
-0.055266 10.5041 46.8488
-0.119309 10.5039 46.8455
-0.183344 10.5038 46.8421
-0.310404 10.5161 46.911
-0.437849 10.5284 46.9791
-0.502045 10.5281 46.9749
-0.566229 10.5278 46.9706
-0.630401 10.5274 46.9661
-0.758702 10.5266 46.9566
-0.886855 10.5514 47.0995
-0.951165 10.5509 47.0942
-1.01546 10.5504 47.0887
-1.07973 10.5499 47.0831
-1.2087 10.5616 47.1483
-1.33802 10.5732 47.2128
-1.40241 10.5725 47.2064
-1.46678 10.5718 47.1998
-1.53113 10.5711 47.1931
-1.66097 10.5825 47.2565
-1.79114 10.5938 47.3191
-1.85558 10.593 47.3116
-1.92 10.5921 47.3039
-6.45667 10.859 48.5351
-6.50182 10.8288 48.3541
8.64469 9.82435 43.8012
8.5891 9.82794 43.8212
8.53342 9.83151 43.841
8.47765 9.83506 43.8606
8.4218 9.83858 43.88
8.36586 9.84207 43.8993
8.30984 9.84554 43.9184
8.25373 9.84897 43.9373
8.19753 9.85239 43.956
8.14126 9.85577 43.9746
8.0849 9.85913 43.993
8.02846 9.86247 44.0112
7.97193 9.86577 44.0293
7.91533 9.86905 44.0472
7.85865 9.87231 44.0649
7.80188 9.87554 44.0825
7.74504 9.87874 44.0999
7.68812 9.88191 44.1171
7.63113 9.88506 44.1342
7.57406 9.88818 44.1511
6.67315 9.99278 44.5852
6.55604 9.99819 44.6133
6.39124 10.0175 44.7234
6.24679 10.0778 44.9971
6.18736 10.0803 45.0101
6.12788 10.0828 45.0229
6.06834 10.0853 45.0356
6.00873 10.0878 45.048
5.94907 10.0902 45.0604
5.88935 10.0927 45.0725
5.76974 10.0974 45.0963
5.70986 10.0998 45.108
5.60015 10.116 45.2014
5.48986 10.1322 45.2947
5.42951 10.1344 45.3056
5.30719 10.1573 45.3525
5.24665 10.1595 45.3629
5.18917 10.1245 45.3221
5.12543 10.1637 45.3832
5.06474 10.1657 45.3932
5.00401 10.1678 45.4029
4.94323 10.1698 45.4125
4.8824 10.1718 45.4219
4.82153 10.1737 45.4312
4.76061 10.1757 45.4403
4.63863 10.1794 45.4581
4.53369 10.2069 45.619
4.47235 10.2087 45.6274
4.34957 10.2123 45.6436
4.28811 10.214 45.6515
4.22662 10.2157 45.6592
4.16509 10.2174 45.6667
4.10352 10.219 45.6741
4.04191 10.2207 45.6813
3.98026 10.2223 45.6884
3.85687 10.2254 45.702
3.6861 10.2539 45.8667
3.56196 10.2568 45.8788
3.49985 10.2582 45.8846
3.4377 10.2595 45.8903
3.37553 10.2609 45.8958
3.31332 10.2622 45.9011
3.25108 10.2635 45.9063
3.18882 10.2647 45.9113
3.07057 10.2793 45.9942
2.95181 10.2938 46.0765
2.88921 10.2949 46.0808
2.82659 10.296 46.0848
2.76394 10.2971 46.0888
2.70127 10.2981 46.0926
2.63858 10.2991 46.0962
2.57587 10.3001 46.0996
2.45038 10.302 46.1061
2.33521 10.3283 46.2597
2.27219 10.3292 46.2624
2.14611 10.3309 46.2672
2.08304 10.3316 46.2695
2.01996 10.3324 46.2715
1.95686 10.3331 46.2734
1.83063 10.3345 46.2767
1.71277 10.3605 46.4282
1.6494 10.3611 46.4293
1.58602 10.3616 46.4303
1.52263 10.3622 46.4311
1.45924 10.3627 46.4317
1.39583 10.3632 46.4322
1.33241 10.3637 46.4326
1.20898 10.377 46.5076
1.08511 10.3901 46.582
1.02146 10.3905 46.5816
0.957801 10.3908 46.581
0.894139 10.391 46.5802
0.766807 10.3915 46.5782
0.580628 10.417 46.7247
0.452873 10.4173 46.7211
0.388998 10.4173 46.7191
0.325125 10.4174 46.7169
-3.77115 10.6651 47.8638
-3.83565 10.6634 47.8515
-3.90011 10.6617 47.839
-4.03927 10.6848 47.9725
-4.16829 10.6812 47.9464
-4.29711 10.6775 47.9197
-4.43745 10.7003 48.0519
-4.5019 10.6984 48.038
-4.5663 10.6964 48.0239
-4.63064 10.6944 48.0098
-4.77202 10.7171 48.141
-4.90076 10.7129 48.1114
-4.96505 10.7108 48.0964
-5.02929 10.7086 48.0813
-5.09347 10.7065 48.0661
-5.23605 10.7289 48.1955
-5.30027 10.7266 48.1798
-5.36444 10.7243 48.1639
-5.49258 10.7197 48.1318
-5.63624 10.7419 48.2598
-5.70031 10.7395 48.2431
-5.76433 10.737 48.2264
-5.97288 10.7566 48.3365
-6.10076 10.7515 48.3015
-6.22839 10.7463 48.2661
-6.45633 10.7926 48.5358
8.53417 9.77684 43.849
8.47839 9.78034 43.8686
8.42253 9.7838 43.8879
8.36658 9.78725 43.9071
8.31054 9.79067 43.9262
8.25442 9.79406 43.9451
6.96525 9.92258 44.5187
6.90706 9.92539 44.5336
6.84879 9.92817 44.5484
6.79046 9.93093 44.563
6.73206 9.93366 44.5775
6.6736 9.93637 44.5917
6.55647 9.9417 44.6198
6.39165 9.96078 44.7298
6.28489 9.97716 44.8255
3.85704 10.1664 45.707
3.68627 10.1946 45.8715
3.56213 10.1974 45.8836
3.50001 10.1988 45.8894
3.43786 10.2001 45.895
3.37568 10.2015 45.9005
3.31346 10.2027 45.9058
3.25122 10.204 45.9109
3.18896 10.2052 45.9159
3.0707 10.2196 45.9988
2.95194 10.234 46.081
2.88933 10.2351 46.0852
2.82671 10.2361 46.0893
2.76406 10.2372 46.0932
2.70139 10.2382 46.0969
2.63869 10.2392 46.1005
2.57598 10.2402 46.104
2.45048 10.242 46.1104
2.33531 10.2681 46.2638
2.27229 10.2689 46.2665
2.20925 10.2697 46.269
2.1462 10.2705 46.2714
2.08313 10.2713 46.2735
2.02004 10.272 46.2756
1.95694 10.2727 46.2775
1.83513 10.2863 46.3551
1.71284 10.2998 46.4321
1.64947 10.3003 46.4332
1.58609 10.3009 46.4342
1.5227 10.3014 46.4349
1.4593 10.3019 46.4356
1.39589 10.3024 46.436
1.33247 10.3028 46.4363
1.21247 10.3283 46.5862
1.08517 10.329 46.5857
1.02151 10.3293 46.5852
0.957849 10.3296 46.5846
0.894183 10.3299 46.5838
0.766845 10.3303 46.5818
0.580671 10.3555 46.7281
0.452909 10.3557 46.7245
0.389031 10.3558 46.7225
0.325156 10.3558 46.7203
0.135267 10.3682 46.7885
0.00884994 10.3805 46.8583
-0.0552059 10.3803 46.8552
-0.119254 10.3802 46.8519
-0.183295 10.38 46.8484
-0.310349 10.392 46.9172
-0.437788 10.404 46.9853
-0.501989 10.4037 46.981
-0.566178 10.4033 46.9766
-0.630354 10.403 46.9721
-0.758665 10.4021 46.9625
-0.886793 10.4264 47.1052
-0.951108 10.4259 47.0999
-1.01541 10.4254 47.0944
-1.07968 10.4248 47.0887
-1.20865 10.4363 47.1538
-1.33796 10.4476 47.2182
-1.40235 10.4469 47.2118
-1.46672 10.4462 47.2052
-1.53107 10.4454 47.1984
-1.6609 10.4566 47.2617
-1.79106 10.4676 47.3242
-1.86147 10.4872 47.3433
-1.92592 10.4863 47.3356
-1.99034 10.4854 47.3277
-2.12306 10.5091 47.4669
