1.32388 8.38094 46.8261
1.25998 8.38077 46.8254
1.19607 8.38059 46.8245
1.13216 8.38039 46.8235
1.06825 8.38016 46.8223
1.00433 8.37992 46.821
0.624697 8.32354 46.6072
0.561056 8.32317 46.6049
0.497416 8.32277 46.6025
0.433779 8.32236 46.5999
0.370145 8.32193 46.5972
0.306515 8.32148 46.5943
0.24289 8.32101 46.5913
0.17927 8.32053 46.5881
0.12061 8.30154 46.5581
-0.00652792 8.30048 46.551
-0.0666032 8.27289 46.4474
-0.258087 8.26258 46.3621
-0.321369 8.26195 46.3579
-0.447901 8.26063 46.349
-0.511149 8.25995 46.3443
-0.879253 8.21862 46.2608
-0.942331 8.21782 46.2552
-1.13137 8.20697 46.1655
-1.19408 8.19778 46.0873
-1.31964 8.19598 46.0747
-1.68376 8.15349 45.9818
-1.74631 8.15247 45.9745
-1.80883 8.15142 45.9671
-1.9338 8.1493 45.9519
-1.99625 8.14821 45.9441
-2.17066 8.1081 45.8679
-2.22947 8.09096 45.719
-2.35354 8.08862 45.7022
-2.41553 8.08743 45.6936
-2.53942 8.085 45.676
-2.95837 8.03945 45.5593
-3.01997 8.0381 45.5495
-3.08154 8.03674 45.5396
-3.14307 8.03537 45.5296
-3.20456 8.03398 45.5194
-3.26602 8.03257 45.5091
-3.32744 8.03115 45.4987
-3.38882 8.02972 45.4881
-3.45016 8.02827 45.4774
-3.86366 7.98121 45.3486
-3.92462 7.97965 45.3371
-3.98554 7.97808 45.3254
-4.04641 7.97649 45.3136
-4.10724 7.97489 45.3017
-4.16802 7.97328 45.2896
-4.22876 7.97165 45.2775
-4.28945 7.97002 45.2652
-4.3501 7.96836 45.2529
-4.48134 7.98024 45.3639
-4.54203 7.97854 45.3511
-4.60267 7.97682 45.3382
-4.66327 7.97509 45.3251
-4.72381 7.97335 45.312
-4.78431 7.97159 45.2987
9.15505 8.8245 49.0112
8.99452 8.80842 48.8793
8.93198 8.81091 48.8989
8.80662 8.81581 48.9376
8.23566 8.75429 48.6792
8.01493 8.74008 48.5614
7.95188 8.74216 48.5779
7.88876 8.74422 48.5943
7.82556 8.74626 48.6105
7.60555 8.73166 48.4895
7.54225 8.7336 48.5048
7.06999 8.68826 48.379
7.00641 8.68998 48.3927
6.78843 8.67485 48.267
6.72479 8.67647 48.2799
6.66109 8.67807 48.2927
6.59732 8.67965 48.3053
6.53349 8.6812 48.3177
6.38125 8.64543 48.1473
6.31749 8.64689 48.1591
6.25367 8.64834 48.1708
6.19085 8.63096 48.1527
6.12695 8.63235 48.164
5.91134 8.61669 48.0335
5.84743 8.61799 48.044
5.74101 8.65914 48.2575
5.67808 8.64149 48.2381
5.61374 8.64271 48.248
5.46283 8.62534 48.1035
5.33422 8.62763 48.122
5.26984 8.62873 48.1309
5.20541 8.62982 48.1397
4.7377 8.57956 47.9758
4.5898 8.56205 47.8296
4.46105 8.56373 47.8435
4.39661 8.56454 47.8503
4.33214 8.56533 47.8568
3.78819 8.49548 47.5287
3.59527 8.49718 47.5435
3.5309 8.49771 47.548
3.4665 8.49822 47.5525
3.40207 8.4987 47.5567
3.33762 8.49917 47.5608
3.26906 8.47159 47.4581
3.0722 8.44497 47.3633
3.00791 8.44532 47.3666
2.9436 8.44565 47.3698
2.87926 8.44596 47.3728
2.81491 8.44626 47.3756
2.74435 8.43737 47.3008
2.29563 8.39243 47.1828
2.22608 8.38355 47.1077
2.02861 8.37478 47.0347
1.96452 8.37481 47.0356
1.90043 8.37483 47.0363
1.83632 8.37482 47.0368
1.7722 8.3748 47.0372
1.32383 8.31937 46.8305
1.25993 8.31919 46.8297
1.19602 8.31899 46.8288
1.13211 8.31877 46.8278
1.06819 8.31853 46.8266
1.00427 8.31827 46.8252
0.814082 8.29016 46.7184
0.751916 8.26281 46.6155
0.624624 8.26209 46.6113
0.560979 8.2617 46.609
0.497337 8.26129 46.6065
0.433696 8.26086 46.6039
0.370059 8.26042 46.6011
-0.068279 8.20305 46.3778
-0.258193 8.20123 46.3658
-0.321478 8.20059 46.3616
-0.448015 8.19925 46.3526
-0.511265 8.19856 46.3479
-0.574503 8.19784 46.3431
-0.637728 8.19712 46.3381
-1.13149 8.14565 46.1688
-1.19421 8.13656 46.0906
-1.257 8.13566 46.0843
-1.31977 8.13475 46.0779
-1.38252 8.13382 46.0714
-1.43935 8.11456 46.0387
-1.50202 8.11359 46.0319
-1.55871 8.09429 45.9991
-1.62131 8.0933 45.992
-1.68388 8.09228 45.9849
-1.74643 8.09125 45.9776
-1.80895 8.0902 45.9702
-1.93393 8.08806 45.9549
-2.35366 8.02763 45.705
-2.41565 8.02644 45.6964
-2.53954 8.02399 45.6788
-2.60144 8.02275 45.6698
-2.66331 8.02149 45.6606
-2.72514 8.02022 45.6514
-2.78694 8.01893 45.642
-3.14316 7.9744 45.5321
-3.20466 7.97301 45.5219
-3.26611 7.9716 45.5115
-3.32753 7.97018 45.5011
-3.38891 7.96875 45.4905
-3.45025 7.9673 45.4798
-3.51156 7.96584 45.469
-3.57282 7.96436 45.4581
-3.62676 7.94463 45.4215
-3.6806 7.92489 45.3848
-3.74169 7.92338 45.3736
-3.80273 7.92184 45.3623
-3.86373 7.9203 45.3508
-3.92468 7.91874 45.3392
-3.9856 7.91717 45.3275
-4.04647 7.91559 45.3157
-4.48137 7.91913 45.3659
9.15602 8.76218 49.0207
8.99546 8.74624 48.8886
8.9329 8.74868 48.9082
8.80752 8.75348 48.9468
8.71048 8.73502 48.7944
8.64777 8.73734 48.8131
8.58497 8.73965 48.8315
8.01565 8.67803 48.5698
7.9526 8.68007 48.5864
7.88946 8.68208 48.6027
7.82624 8.68407 48.6188
7.76295 8.68604 48.6347
7.60619 8.66959 48.4977
7.54288 8.67148 48.5129
7.47949 8.67335 48.528
7.41623 8.6563 48.5123
7.33833 8.648 48.4432
7.2609 8.62101 48.3444
7.19752 8.62275 48.3587
7.13407 8.62447 48.3727
7.07054 8.62616 48.3866
7.00695 8.62784 48.4003
6.78893 8.61284 48.2745
6.72528 8.61442 48.2874
6.66157 8.61597 48.3001
6.19127 8.56891 48.1597
6.12736 8.57027 48.171
5.84779 8.556 48.0508
5.78382 8.55724 48.0611
5.71979 8.55846 48.0713
5.61408 8.58034 48.2546
5.54968 8.58151 48.2643
5.46315 8.56314 48.1101
5.33453 8.56536 48.1285
5.27014 8.56643 48.1374
5.2057 8.56749 48.1462
4.59001 8.49998 47.8356
4.46125 8.5016 47.8495
4.39681 8.50238 47.8562
4.33233 8.50314 47.8627
4.12146 8.48637 47.7213
4.05952 8.4684 47.6988
3.99512 8.46905 47.7045
3.93323 8.45101 47.6817
3.8688 8.45161 47.6871
3.80433 8.45219 47.6923
3.59538 8.43523 47.549
3.53101 8.43573 47.5535
3.46661 8.43621 47.5579
3.07228 8.38312 47.3685
3.00799 8.38345 47.3718
2.94367 8.38376 47.3749
2.87933 8.38405 47.3779
2.81496 8.38432 47.3807
2.74439 8.37552 47.3059
2.54557 8.36711 47.2354
2.0286 8.31311 47.0394
1.96451 8.31312 47.0403
1.90041 8.31311 47.041
1.8363 8.31309 47.0415
1.77217 8.31305 47.0419
1.70804 8.31298 47.0421
1.58785 8.27579 46.9875
1.52376 8.27566 46.9873
1.45158 8.25813 46.836
1.32379 8.25779 46.8349
1.25988 8.25759 46.8341
1.19597 8.25737 46.8332
1.13206 8.25713 46.8321
1.06813 8.25688 46.8309
0.751848 8.20138 46.6196
0.624549 8.20062 46.6154
0.560901 8.20022 46.613
0.497255 8.19979 46.6105
0.433611 8.19935 46.6079
0.369971 8.1989 46.6051
0.306335 8.19842 46.6022
0.242703 8.19793 46.5991
0.179077 8.19741 46.5959
0.115456 8.19688 46.5925
-0.44813 8.13785 46.3562
-0.511384 8.13715 46.3515
-0.574624 8.13643 46.3467
-0.637851 8.13569 46.3417
-0.701064 8.13493 46.3365
-0.758755 8.1158 46.3048
-0.885037 8.1142 46.2939
-0.942545 8.09501 46.262
-1.13161 8.08432 46.1722
-1.19434 8.07533 46.0939
-1.25714 8.07443 46.0877
-1.62142 8.03209 45.9951
-1.684 8.03106 45.988
-1.74655 8.03003 45.9807
-1.80908 8.02897 45.9732
-1.93405 8.02682 45.9579
-1.9965 8.02572 45.9501
-2.53966 7.96298 45.6815
-2.60156 7.96174 45.6725
-2.66343 7.96047 45.6634
-2.72527 7.95919 45.6541
-2.78707 7.9579 45.6447
-2.84883 7.95659 45.6351
-2.91057 7.95527 45.6255
-2.96541 7.93573 45.5901
-3.02016 7.91618 45.5546
-3.08173 7.91481 45.5446
-3.14326 7.91343 45.5346
-3.20475 7.91204 45.5243
-3.26621 7.91063 45.514
-3.32763 7.90921 45.5035
-3.38901 7.90777 45.493
-3.45035 7.90632 45.4823
-3.86379 7.85939 45.353
-3.92475 7.85783 45.3414
-3.98566 7.85626 45.3297
-4.04653 7.85467 45.3179
-4.10736 7.85307 45.3059
-4.16814 7.85146 45.2939
-4.22888 7.84984 45.2817
-4.28957 7.8482 45.2694
-4.48141 7.85802 45.3679
-4.54209 7.85632 45.355
-4.60273 7.85461 45.3421
-4.66333 7.85288 45.329
-4.72387 7.85115 45.3158
-4.78436 7.8494 45.3025
8.99639 8.68404 48.898
8.93383 8.68643 48.9175
8.80841 8.69113 48.956
8.71135 8.67286 48.8035
8.64863 8.67514 48.8221
8.58581 8.67739 48.8406
8.36349 8.64464 48.6928
8.30015 8.62788 48.6792
8.2372 8.62997 48.6965
8.01637 8.61596 48.5783
7.95331 8.61795 48.5948
7.89016 8.61992 48.611
7.82693 8.62187 48.6271
7.76363 8.62379 48.643
7.3248 8.55729 48.3379
7.26148 8.55901 48.3523
7.19809 8.56071 48.3665
7.13463 8.56239 48.3805
7.0711 8.56405 48.3943
7.0075 8.56568 48.408
6.78943 8.5508 48.282
6.72578 8.55234 48.2949
6.66206 8.55386 48.3076
6.59827 8.55535 48.3201
6.53442 8.55683 48.3324
6.47051 8.55828 48.3445
5.91209 8.49276 48.0472
5.84816 8.49399 48.0577
5.78418 8.49519 48.0679
5.72014 8.49638 48.078
5.65605 8.49755 48.088
5.33483 8.50307 48.135
5.27043 8.50411 48.1439
5.20599 8.50514 48.1526
5.1415 8.50614 48.1612
5.07696 8.50712 48.1695
4.92951 8.47114 47.994
4.8651 8.47204 48.0018
4.80064 8.47293 48.0095
4.73818 8.45505 47.988
4.59023 8.43789 47.8417
4.46145 8.43945 47.8555
4.39701 8.4402 47.8622
4.33252 8.44094 47.8686
3.86895 8.38951 47.6927
3.80448 8.39007 47.6979
3.53112 8.37374 47.559
3.46671 8.3742 47.5634
3.40227 8.37463 47.5676
3.3378 8.37505 47.5716
2.94373 8.32185 47.3801
2.87939 8.32211 47.383
2.81502 8.32236 47.3858
2.74444 8.31365 47.3109
2.54559 8.30529 47.2404
2.48134 8.30545 47.2424
2.42059 8.28709 47.2167
2.35634 8.2872 47.2184
2.29567 8.26878 47.1924
2.23143 8.26885 47.1938
2.02859 8.25142 47.0442
1.9645 8.25141 47.045
1.90039 8.25139 47.0456
1.45154 8.19657 46.8404
1.32374 8.19619 46.8393
1.25983 8.19598 46.8385
1.19592 8.19574 46.8375
1.132 8.19549 46.8364
1.06807 8.19522 46.8352
1.00415 8.19493 46.8338
0.497171 8.13829 46.6145
0.433524 8.13783 46.6119
0.369881 8.13736 46.6091
0.306241 8.13687 46.6061
0.242607 8.13636 46.603
0.178977 8.13584 46.5998
0.115354 8.13529 46.5964
-0.0118729 8.13416 46.5891
-0.0719202 8.10687 46.4849
-0.257114 8.08669 46.4465
-0.447257 8.08463 46.433
-0.511504 8.07573 46.3551
-0.574747 8.075 46.3503
-0.637976 8.07425 46.3452
-0.942884 8.02559 46.1932
-1.13166 8.01499 46.1035
-1.19448 8.0141 46.0973
-1.25727 8.01318 46.091
-1.32005 8.01225 46.0845
-1.3828 8.01131 46.078
-1.44553 8.01035 46.0712
-1.8081 7.95993 45.9054
-1.93418 7.96556 45.9609
-1.99524 7.95667 45.8823
-2.18213 7.95326 45.858
-2.23621 7.92616 45.7533
-2.3539 7.90563 45.7107
-2.41589 7.90442 45.702
-2.53979 7.90196 45.6843
-2.60169 7.90071 45.6753
-2.66356 7.89944 45.6661
-2.72539 7.89816 45.6568
-3.14336 7.85245 45.5371
-3.20485 7.85105 45.5268
-3.26631 7.84964 45.5165
-3.32773 7.84822 45.506
-3.38911 7.84678 45.4954
-3.45045 7.84533 45.4847
-3.51175 7.84386 45.4738
-3.57302 7.84238 45.4629
-3.63424 7.84089 45.4518
-4.04659 7.79375 45.32
-4.10742 7.79215 45.3081
-4.1682 7.79054 45.296
-4.22894 7.78892 45.2838
-4.28963 7.78729 45.2715
-4.48144 7.7969 45.3699
-4.54213 7.7952 45.357
-4.60277 7.79349 45.344
-4.66336 7.79177 45.3309
-4.7239 7.79003 45.3177
-4.78439 7.78829 45.3044
9.15798 8.63747 49.0397
8.99733 8.62182 48.9074
8.93475 8.62415 48.9269
8.80931 8.62875 48.9652
8.36381 8.56366 48.6704
8.30093 8.56573 48.6879
8.23797 8.56778 48.7051
8.0171 8.55387 48.5869
7.95402 8.55582 48.6033
7.89086 8.55774 48.6195
7.82762 8.55964 48.6355
7.7643 8.56152 48.6513
7.60748 8.54538 48.5141
7.54414 8.54718 48.5292
7.13519 8.50029 48.3883
7.07165 8.50191 48.4021
7.00804 8.5035 48.4157
6.78994 8.48874 48.2896
6.72627 8.49024 48.3024
6.66254 8.49172 48.315
6.59874 8.49318 48.3275
6.53488 8.49461 48.3397
6.4454 8.47671 48.1868
6.38257 8.45944 48.169
6.31879 8.4608 48.1807
6.25494 8.46213 48.1922
6.1921 8.44475 48.1738
6.12818 8.44603 48.185
5.91246 8.43076 48.0542
5.84853 8.43195 48.0646
5.78454 8.43313 48.0748
5.72049 8.43428 48.0848
5.6564 8.43541 48.0947
5.55035 8.45664 48.2775
5.33513 8.44077 48.1416
5.27073 8.44178 48.1504
5.20628 8.44277 48.1591
5.14178 8.44374 48.1676
4.73842 8.39277 47.9942
4.67391 8.39358 48.0015
4.59044 8.37578 47.8478
4.46165 8.37729 47.8615
4.3972 8.37801 47.8681
4.33271 8.37872 47.8746
4.20361 8.38006 47.887
3.53122 8.31173 47.5645
3.46681 8.31216 47.5688
3.40237 8.31257 47.573
3.33789 8.31296 47.577
3.07243 8.25938 47.3789
3.00812 8.25966 47.3822
2.9438 8.25992 47.3852
2.87944 8.26016 47.3882
2.81507 8.26039 47.3909
2.74448 8.25177 47.316
2.23144 8.20698 47.1986
2.02858 8.18972 47.0489
1.96448 8.18969 47.0497
1.90037 8.18965 47.0503
1.83625 8.18959 47.0508
1.77212 8.1895 47.0511
1.70798 8.1894 47.0513
1.25978 8.13435 46.8429
1.19586 8.1341 46.8419
1.13194 8.13383 46.8408
1.06801 8.13354 46.8395
1.00408 8.13323 46.838
0.813868 8.10542 46.7309
0.747152 8.09676 46.6545
0.624391 8.07765 46.6235
0.560737 8.07722 46.6211
0.497085 8.07677 46.6186
0.433435 8.0763 46.6159
0.369788 8.07581 46.6131
0.306146 8.07531 46.6101
0.242508 8.07479 46.607
0.178875 8.07425 46.6037
-0.448369 8.01503 46.3635
-0.511627 8.0143 46.3588
-0.574872 8.01356 46.3539
-0.638104 8.0128 46.3488
-0.701322 8.01202 46.3436
-0.764524 8.01123 46.3383
-1.1318 7.95375 46.1068
-1.19461 7.95285 46.1006
-1.25741 7.95193 46.0943
-1.32019 7.95099 46.0878
-1.38294 7.95003 46.0812
-1.44568 7.94907 46.0745
-1.50839 7.94808 46.0676
-1.56507 7.92887 46.0345
-1.6277 7.92785 46.0274
-1.68424 7.9086 45.9942
-1.7468 7.90755 45.9868
-1.80823 7.89879 45.9085
-1.93431 7.9043 45.9639
-1.99537 7.8955 45.8853
-2.41602 7.8434 45.7048
-2.53992 7.84093 45.6871
-2.60182 7.83968 45.6781
-2.66369 7.83841 45.6689
-2.72552 7.83712 45.6595
-2.78733 7.83582 45.6501
-2.84909 7.83451 45.6405
-2.91083 7.83318 45.6308
-3.32783 7.78723 45.5085
-3.38921 7.78579 45.4978
-3.45055 7.78433 45.4871
-3.51186 7.78287 45.4762
-3.57312 7.78138 45.4652
-3.63434 7.77989 45.4541
-3.69552 7.77838 45.4429
-3.74927 7.75874 45.4059
-3.87137 7.75566 45.383
-3.92488 7.73598 45.3458
-4.04666 7.73282 45.3222
-4.10748 7.73123 45.3102
-4.16826 7.72962 45.2981
-4.229 7.728 45.2859
-4.28969 7.72636 45.2736
-4.48148 7.73577 45.3719
-4.54216 7.73408 45.359
-4.6028 7.73237 45.346
-4.66339 7.73065 45.3329
-4.72393 7.72892 45.3196
-4.78442 7.72717 45.3063
9.15896 8.57508 49.0492
8.99827 8.55956 48.9168
8.93567 8.56185 48.9362
8.8102 8.56635 48.9744
8.7131 8.54847 48.8219
8.01782 8.49175 48.5954
7.95473 8.49366 48.6117
7.89156 8.49553 48.6279
7.82831 8.49739 48.6439
7.76498 8.49923 48.6596
7.60812 8.48324 48.5223
7.5449 8.46625 48.5066
7.48152 8.46798 48.5216
7.41807 8.46968 48.5363
7.26265 8.43496 48.368
7.19924 8.43658 48.3822
7.13576 8.43818 48.3961
7.0722 8.43975 48.4098
7.00858 8.44131 48.4234
6.79044 8.42666 48.2972
6.72676 8.42812 48.3099
6.19252 8.38264 48.1809
6.12859 8.38389 48.192
5.91283 8.36874 48.0611
5.84889 8.3699 48.0715
5.78489 8.37104 48.0816
5.72084 8.37216 48.0917
5.65674 8.37326 48.1015
5.59258 8.37433 48.1112
5.52837 8.37539 48.1207
5.33543 8.37844 48.1481
5.27102 8.37942 48.1569
5.20656 8.38038 48.1656
5.14206 8.38131 48.174
5.0775 8.38223 48.1823
4.46185 8.31511 47.8676
4.39739 8.3158 47.8742
4.33289 8.31648 47.8806
4.20378 8.31777 47.8929
4.0575 8.30074 47.7447
3.99557 8.28277 47.7218
3.93111 8.28332 47.7272
3.86924 8.26528 47.7041
3.80476 8.26578 47.7092
3.53133 8.24971 47.5701
3.46691 8.25011 47.5744
3.00819 8.19774 47.3874
2.94386 8.19798 47.3904
2.8795 8.1982 47.3933
2.81512 8.1984 47.3961
2.75072 8.19858 47.3986
2.54563 8.18161 47.2505
2.48137 8.18172 47.2524
2.02857 8.12801 47.0537
1.96447 8.12796 47.0545
1.90035 8.12789 47.0551
1.83623 8.12781 47.0555
1.77209 8.12771 47.0558
1.70794 8.12759 47.0559
1.5837 8.1089 47.0283
1.51544 8.10026 46.9522
1.45146 8.07341 46.8494
1.32364 8.07296 46.8481
1.25973 8.07271 46.8473
1.1958 8.07244 46.8463
1.13188 8.07216 46.8451
1.06794 8.07185 46.8438
1.00401 8.07153 46.8423
0.624309 8.01615 46.6276
0.560652 8.0157 46.6252
0.496996 8.01524 46.6226
0.433343 8.01475 46.6199
0.369693 8.01425 46.6171
0.306048 8.01373 46.6141
0.242407 8.0132 46.6109
0.178771 8.01265 46.6076
0.115142 8.01208 46.6042
-0.0120964 8.01089 46.5969
-0.0757039 8.01027 46.593
-0.511752 7.95286 46.3624
-0.574999 7.95211 46.3575
-0.638234 7.95134 46.3524
-0.701454 7.95055 46.3472
-0.764659 7.94974 46.3419
-0.942881 7.91073 46.2721
-1.13194 7.8925 46.1102
-1.19475 7.89159 46.104
-1.25755 7.89066 46.0977
-1.32033 7.88971 46.0912
-1.74692 7.84629 45.9899
-1.80837 7.83763 45.9116
-1.99552 7.83433 45.8883
-2.18242 7.8309 45.8639
-2.66382 7.77736 45.6716
-2.72565 7.77607 45.6623
-2.78746 7.77477 45.6528
-2.84923 7.77345 45.6432
-2.91096 7.77212 45.6335
-2.97266 7.77078 45.6237
-3.03432 7.76942 45.6137
-3.08899 7.74995 45.5779
-3.14356 7.73046 45.5421
-3.20506 7.72906 45.5318
-3.26651 7.72765 45.5214
-3.32793 7.72622 45.5109
-3.38931 7.72478 45.5003
-3.45066 7.72333 45.4895
-3.51196 7.72186 45.4786
-3.57322 7.72038 45.4676
-4.04672 7.67189 45.3244
-4.10755 7.67029 45.3124
-4.16833 7.66869 45.3003
-4.22906 7.66707 45.288
-4.28975 7.66543 45.2757
-4.48152 7.67464 45.3739
-4.5422 7.67295 45.361
-4.60284 7.67124 45.3479
-4.66342 7.66953 45.3348
-4.72396 7.6678 45.3216
-4.78445 7.66605 45.3082
8.99921 8.49729 48.9263
8.9366 8.49952 48.9456
8.8111 8.50392 48.9837
8.71397 8.48624 48.8311
8.65051 8.46955 48.8177
8.5877 8.47164 48.8359
8.3654 8.43938 48.6881
8.3025 8.44136 48.7054
8.23952 8.44331 48.7226
8.01855 8.42961 48.604
7.95544 8.43147 48.6203
7.89226 8.43331 48.6364
7.829 8.43512 48.6523
7.76566 8.43691 48.668
7.26323 8.37291 48.376
7.19981 8.37448 48.39
7.13632 8.37604 48.4039
7.07276 8.37757 48.4176
7.00913 8.37908 48.4311
6.79094 8.36456 48.3048
6.72726 8.36598 48.3175
6.66351 8.36738 48.33
6.59969 8.36876 48.3424
6.53581 8.37012 48.3546
6.47187 8.37146 48.3666
5.84925 8.30783 48.0784
5.78525 8.30894 48.0885
5.72119 8.31002 48.0985
5.65707 8.31108 48.1083
5.59291 8.31213 48.1179
5.33573 8.3161 48.1547
5.27131 8.31705 48.1635
5.20685 8.31797 48.1721
5.14233 8.31888 48.1805
5.07777 8.31976 48.1888
4.92833 8.30301 48.042
4.86583 8.28522 48.0206
4.80135 8.28602 48.0282
4.73683 8.28679 48.0356
4.67437 8.26891 48.0137
4.46205 8.25291 47.8736
4.39758 8.25357 47.8802
4.33308 8.25422 47.8866
4.20395 8.25545 47.8988
3.8049 8.20361 47.7148
3.67582 8.2045 47.7245
3.53143 8.18767 47.5756
3.46701 8.18804 47.5799
3.40255 8.18841 47.584
3.33807 8.18875 47.5879
3.27356 8.18907 47.5917
2.75076 8.13656 47.4038
2.55154 8.12834 47.333
2.48138 8.11984 47.2575
2.41709 8.11991 47.2592
2.35278 8.11996 47.2608
2.29209 8.1016 47.2346
2.22779 8.10161 47.2359
2.03358 8.07469 47.1349
1.96445 8.06621 47.0592
1.90033 8.06613 47.0598
1.8362 8.06602 47.0602
1.77206 8.0659 47.0605
1.32359 8.01133 46.8525
1.25967 8.01106 46.8517
1.19574 8.01077 46.8506
1.13181 8.01047 46.8495
1.06788 8.01015 46.8481
1.00394 8.00981 46.8467
0.809125 8.00052 46.7665
0.369596 7.95268 46.6211
0.305948 7.95215 46.6181
0.242304 7.9516 46.6149
0.178665 7.95103 46.6116
0.115033 7.95045 46.6081
-0.0122115 7.94924 46.6008
-0.077389 7.94063 46.5232
-0.203016 7.94729 46.5886
-0.26912 7.93067 46.4371
-0.322053 7.8936 46.38
-0.448615 7.89216 46.3709
-0.511878 7.89141 46.3661
-0.575129 7.89064 46.3611
-0.638365 7.88986 46.356
-0.701588 7.88906 46.3508
-1.13207 7.83124 46.1136
-1.19489 7.83032 46.1074
-1.25769 7.82938 46.101
-1.32047 7.82843 46.0945
-1.38323 7.82746 46.0879
-1.44597 7.82647 46.0811
-1.50869 7.82547 46.0742
-1.57138 7.82446 46.0671
-1.99566 7.77315 45.8914
-2.18256 7.7697 45.8669
-2.24306 7.76106 45.7879
-2.30517 7.75987 45.7794
-2.36077 7.74061 45.745
-2.4228 7.73939 45.7362
-2.47824 7.7201 45.7017
-2.54018 7.71885 45.6927
-2.60208 7.71758 45.6836
-2.66395 7.71631 45.6744
-2.72579 7.71501 45.665
-2.78759 7.71371 45.6555
-2.84936 7.71239 45.6459
-2.91109 7.71105 45.6362
-3.32804 7.66521 45.5134
-3.38942 7.66377 45.5027
-3.51206 7.66085 45.4811
-3.57332 7.65936 45.47
-3.69573 7.65636 45.4476
-3.75686 7.65484 45.4362
-4.22913 7.60613 45.2901
-4.66346 7.60839 45.3368
-4.724 7.60667 45.3235
-4.78449 7.60493 45.3101
9.16092 8.45021 49.0684
9.00015 8.43498 48.9357
8.93752 8.43717 48.955
8.3662 8.37721 48.6969
8.30329 8.37914 48.7142
8.24029 8.38105 48.7313
8.01927 8.36745 48.6126
7.95616 8.36926 48.6288
7.89296 8.37106 48.6448
7.82969 8.37282 48.6607
7.76633 8.37457 48.6764
7.60941 8.35889 48.5389
7.13688 8.31388 48.4118
7.07331 8.31537 48.4254
7.00967 8.31684 48.4389
6.72775 8.30382 48.3251
6.66399 8.30518 48.3376
6.60016 8.30652 48.3499
6.53628 8.30785 48.362
6.44673 8.29054 48.209
6.38389 8.27327 48.1909
6.32008 8.27452 48.2024
6.2562 8.27574 48.2138
6.19335 8.25837 48.1952
6.12941 8.25954 48.2062
5.84961 8.24574 48.0853
5.7856 8.24681 48.0954
5.72153 8.24786 48.1054
5.65741 8.24889 48.1151
5.59324 8.2499 48.1247
5.33603 8.25374 48.1613
5.27161 8.25465 48.1701
5.20713 8.25555 48.1786
5.14261 8.25642 48.187
5.07804 8.25727 48.1952
4.67459 8.20654 48.0199
4.46225 8.19069 47.8797
4.39777 8.19133 47.8862
4.33326 8.19195 47.8926
4.26871 8.19254 47.8987
4.20412 8.19312 47.9048
4.05779 8.17646 47.7565
3.53153 8.12561 47.5812
3.4671 8.12596 47.5854
3.40264 8.1263 47.5895
3.33815 8.12661 47.5934
3.27364 8.12691 47.5971
3.06951 8.09202 47.4227
3.00832 8.07386 47.3979
2.94397 8.07405 47.4009
2.87961 8.07423 47.4037
2.81522 8.07438 47.4064
2.75081 8.07452 47.4089
2.55156 8.06635 47.3381
2.03357 8.01284 47.1397
1.96443 8.00445 47.064
1.9003 8.00434 47.0645
1.83617 8.00422 47.0649
1.77202 8.00408 47.0652
1.70787 8.00393 47.0653
1.57953 8.00356 47.065
1.19568 7.94909 46.855
1.13174 7.94877 46.8538
1.06781 7.94843 46.8525
1.00386 7.94808 46.851
0.809034 7.93885 46.7708
0.7423 7.93038 46.6939
0.61948 7.9113 46.6626
0.55578 7.91082 46.6601
0.496812 7.89213 46.6308
0.433153 7.89162 46.628
0.369497 7.89109 46.6251
0.305845 7.89055 46.6221
0.242198 7.88999 46.6189
0.178557 7.88941 46.6155
0.114921 7.88881 46.6121
-0.0123287 7.88757 46.6046
-0.385464 7.83145 46.3792
-0.448742 7.8307 46.3745
-0.512007 7.82994 46.3697
-0.57526 7.82917 46.3648
-0.638499 7.82838 46.3596
-0.701724 7.82757 46.3544
-0.764934 7.82675 46.349
-1.25784 7.76809 46.1044
-1.32062 7.76713 46.0978
-1.38338 7.76615 46.0912
-1.44612 7.76516 46.0844
-1.50884 7.76415 46.0774
-1.57153 7.76313 46.0704
-1.6342 7.76209 46.0631
-1.69074 7.74293 46.0297
-1.75333 7.74186 46.0222
-1.80865 7.71529 45.9178
-1.9958 7.71196 45.8944
-2.18271 7.70849 45.8699
-2.54031 7.65779 45.6955
-2.60221 7.65652 45.6864
-2.66408 7.65524 45.6772
-2.72592 7.65395 45.6678
-2.78772 7.65264 45.6583
-2.84949 7.65131 45.6487
-2.91123 7.64998 45.6389
-2.97293 7.64863 45.629
-3.0346 7.64726 45.619
-3.09622 7.64588 45.6089
-3.51217 7.59982 45.4835
-3.57343 7.59834 45.4724
-3.69583 7.59534 45.45
-3.75697 7.59381 45.4386
-3.87912 7.59073 45.4154
-3.93261 7.57116 45.378
-4.04686 7.55 45.3287
-4.10768 7.54841 45.3167
-4.22919 7.54518 45.2923
-4.4816 7.55236 45.3779
-4.54228 7.55067 45.3649
-4.60291 7.54897 45.3519
-4.6635 7.54726 45.3387
-4.72403 7.54553 45.3254
9.1619 8.38774 49.078
9.00109 8.37265 48.9452
8.93845 8.37479 48.9645
8.8129 8.37899 49.0023
8.71571 8.3617 48.8496
8.24106 8.31876 48.7401
8.02 8.30527 48.6212
7.95687 8.30703 48.6374
7.89366 8.30878 48.6534
7.83037 8.31051 48.6691
7.76701 8.31221 48.6848
7.61014 8.27806 48.5162
7.5468 8.27968 48.5312
7.48339 8.28128 48.546
7.41991 8.28286 48.5606
7.2644 8.24873 48.3919
7.20096 8.25022 48.4059
7.13744 8.25169 48.4196
7.07386 8.25315 48.4332
7.01021 8.25458 48.4466
6.25766 8.19505 48.1912
6.19377 8.1962 48.2024
6.12981 8.19734 48.2133
5.84998 8.18363 48.0923
5.78595 8.18467 48.1024
5.72188 8.18568 48.1122
5.65775 8.18668 48.122
5.59357 8.18765 48.1315
5.27189 8.19224 48.1767
5.20741 8.1931 48.1852
5.14288 8.19394 48.1935
5.07831 8.19476 48.2017
4.92882 8.17836 48.0549
4.39796 8.12907 47.8923
4.33344 8.12966 47.8986
4.26889 8.13023 47.9047
4.20429 8.13078 47.9107
4.05794 8.11429 47.7624
3.93154 8.09681 47.7446
3.86703 8.09726 47.7497
3.80517 8.07922 47.7262
3.74063 8.07963 47.731
3.67607 8.08001 47.7357
3.53163 8.06353 47.5868
3.46719 8.06386 47.591
3.40273 8.06417 47.595
3.33823 8.06447 47.5989
2.94403 8.01206 47.4061
2.87965 8.01222 47.4089
2.81526 8.01235 47.4116
2.75085 8.01246 47.414
2.55158 8.00434 47.3431
2.48139 7.99602 47.2676
2.41709 7.99605 47.2693
2.35278 7.99606 47.2708
1.9644 7.94267 47.0688
1.90028 7.94255 47.0693
1.83614 7.94241 47.0697
1.77199 7.94225 47.0699
1.70783 7.94207 47.0699
1.57948 7.94167 47.0696
1.51115 7.93332 46.9934
1.44717 7.90676 46.89
1.32348 7.88802 46.8615
1.25955 7.88771 46.8605
1.19561 7.88739 46.8595
1.13168 7.88706 46.8582
1.06773 7.8867 46.8569
1.00379 7.88633 46.8553
0.496717 7.83056 46.6349
0.433054 7.83004 46.6321
0.369395 7.82949 46.6292
0.305741 7.82894 46.6261
0.242091 7.82836 46.6229
0.178446 7.82777 46.6195
0.114808 7.82716 46.616
-0.0124481 7.8259 46.6086
-0.0760641 7.82524 46.6046
-0.203269 7.82388 46.5963
-0.266857 7.82317 46.5919
-0.575394 7.76768 46.3684
-0.638635 7.76688 46.3633
-0.701862 7.76606 46.358
-0.765581 7.75765 46.2801
-0.955026 7.7475 46.1907
-1.13236 7.70869 46.1204
-1.19518 7.70775 46.1141
-1.25799 7.70679 46.1077
-1.32077 7.70582 46.1012
-1.38353 7.70484 46.0945
-1.44627 7.70384 46.0877
-1.50899 7.70282 46.0807
-1.99595 7.65075 45.8975
-2.05684 7.64235 45.8188
-2.18286 7.64727 45.8729
-2.24337 7.63884 45.7939
-2.30549 7.63764 45.7853
-2.36758 7.63642 45.7767
-2.78786 7.59156 45.661
-2.84963 7.59023 45.6514
-2.91137 7.58889 45.6416
-2.97307 7.58754 45.6317
-3.03473 7.58617 45.6217
-3.09636 7.58479 45.6115
-3.15795 7.5834 45.6012
-3.21244 7.564 45.5651
-3.32825 7.54317 45.5184
-3.38963 7.54172 45.5077
-3.51227 7.53879 45.4859
-3.57354 7.53731 45.4749
-3.69594 7.5343 45.4524
-3.75707 7.53278 45.4409
-4.22926 7.48423 45.2944
-4.60295 7.48782 45.3538
-4.66353 7.48611 45.3407
-4.72407 7.48439 45.3274
9.16289 8.32524 49.0877
9.00203 8.3103 48.9548
8.93938 8.31238 48.9739
8.8138 8.31649 49.0117
8.71585 8.2807 48.8269
8.65309 8.28267 48.8452
8.59024 8.28462 48.8633
8.3678 8.25279 48.7148
8.30486 8.25463 48.7319
8.24183 8.25644 48.7489
8.02072 8.24306 48.6298
7.95758 8.24478 48.646
7.89436 8.24648 48.6619
7.26498 8.1866 48.3999
7.20153 8.18806 48.4138
7.13801 8.18949 48.4275
7.07441 8.1909 48.4411
7.01075 8.19229 48.4544
6.72873 8.17943 48.3403
6.66495 8.18072 48.3527
6.60111 8.18198 48.3649
6.5372 8.18323 48.3769
5.85034 8.1215 48.0993
5.78631 8.1225 48.1093
5.72222 8.12348 48.1192
5.65808 8.12444 48.1288
5.59389 8.12539 48.1383
5.46536 8.12721 48.1568
5.20769 8.13064 48.1918
5.14316 8.13145 48.2001
5.07857 8.13224 48.2082
4.92906 8.11601 48.0613
4.86456 8.11674 48.0689
4.80205 8.09895 48.0471
4.73751 8.09963 48.0544
4.67504 8.08177 48.0323
4.39815 8.06679 47.8984
4.33362 8.06735 47.9046
4.26906 8.06789 47.9108
4.20446 8.06841 47.9167
3.74076 8.01738 47.7367
3.67619 8.01774 47.7414
3.53173 8.00144 47.5924
3.46728 8.00175 47.5965
3.40281 8.00203 47.6005
3.33831 8.0023 47.6044
3.27379 8.00255 47.6081
3.14466 8.003 47.6149
2.75088 7.95039 47.4192
2.55159 7.94232 47.3482
2.4814 7.93409 47.2727
2.41709 7.9341 47.2743
2.35277 7.93409 47.2759
2.28844 7.93406 47.2772
2.22779 7.91573 47.2506
2.03354 7.88908 47.1493
1.96438 7.88088 47.0736
1.90025 7.88073 47.0741
1.8361 7.88058 47.0744
1.77195 7.8804 47.0746
1.70778 7.88021 47.0746
1.25948 7.82602 46.865
1.19555 7.82568 46.8639
1.1316 7.82533 46.8626
1.06766 7.82496 46.8612
1.00371 7.82457 46.8597
0.808843 7.81548 46.7794
0.742088 7.80719 46.7025
0.178333 7.76612 46.6235
0.114692 7.7655 46.62
-0.0125698 7.76421 46.6125
-0.0761886 7.76354 46.6085
-0.268274 7.75379 46.5222
-0.327679 7.72735 46.4177
-0.385718 7.70852 46.3867
-0.449001 7.70776 46.382
-0.512272 7.70698 46.3771
-0.575529 7.70618 46.3721
-0.638773 7.70537 46.3669
-0.702003 7.70454 46.3616
-0.765732 7.69623 46.2837
-1.19533 7.64645 46.1175
-1.25813 7.64548 46.1111
-1.32092 7.64451 46.1045
-1.38368 7.64351 46.0978
-1.44643 7.6425 46.091
-1.50915 7.64148 46.084
-1.57185 7.64044 46.0769
-1.63452 7.63939 46.0696
-1.69717 7.63833 46.0622
-2.05699 7.58124 45.8219
-2.18138 7.5789 45.8054
-2.24353 7.57771 45.7969
-2.30565 7.57651 45.7883
-2.36775 7.57529 45.7796
-2.42981 7.57406 45.7708
-2.48524 7.55486 45.736
-2.54721 7.5536 45.7269
-2.60248 7.53437 45.692
-2.66435 7.53308 45.6827
-2.72619 7.53178 45.6733
-2.788 7.53047 45.6638
-2.84977 7.52914 45.6541
-2.91151 7.5278 45.6443
-2.97321 7.52644 45.6344
-3.51238 7.47775 45.4884
-3.57364 7.47627 45.4773
-3.69604 7.47326 45.4548
-3.75718 7.47174 45.4433
-3.87933 7.46866 45.4201
-3.94034 7.4671 45.4083
9.16387 8.26272 49.0974
9.00298 8.24792 48.9643
8.94031 8.24995 48.9834
8.3686 8.19054 48.7237
8.30564 8.19233 48.7408
8.24261 8.1941 48.7577
8.02144 8.18082 48.6385
7.95829 8.1825 48.6546
7.89506 8.18416 48.6705
7.83175 8.1858 48.6861
7.2021 8.12587 48.4218
7.13857 8.12726 48.4355
7.07496 8.12863 48.449
7.01129 8.12999 48.4623
6.72922 8.11721 48.3479
6.66543 8.11845 48.3603
6.60158 8.11968 48.3725
6.53766 8.12089 48.3845
6.46178 8.0946 48.2833
6.3852 8.08692 48.213
6.32136 8.08806 48.2244
6.25746 8.08917 48.2356
6.19459 8.07181 48.2168
6.13062 8.07287 48.2276
5.85069 8.05936 48.1063
5.78666 8.06032 48.1163
5.72256 8.06127 48.1261
5.65842 8.06219 48.1357
5.59422 8.0631 48.1452
5.14343 8.06893 48.2066
5.07884 8.06969 48.2147
5.0142 8.07043 48.2227
4.39833 8.00449 47.9045
4.3338 8.00502 47.9107
4.26923 8.00553 47.9168
4.20462 8.00603 47.9227
4.05822 7.9899 47.7743
3.59624 7.93904 47.5937
3.53182 7.93934 47.598
3.4029 7.93988 47.6061
3.33839 7.94012 47.6099
3.27386 7.94035 47.6136
3.14472 7.94074 47.6204
3.06651 7.9243 47.4668
3.00529 7.90619 47.4418
2.94089 7.90632 47.4447
2.87975 7.88815 47.4194
2.81534 7.88824 47.422
2.75092 7.88831 47.4244
2.62201 7.8884 47.4288
2.55161 7.88028 47.3534
2.4814 7.87215 47.2778
2.02847 7.81921 47.0778
1.96435 7.81907 47.0784
1.90021 7.81891 47.0789
1.83607 7.81873 47.0792
1.77191 7.81854 47.0793
1.70774 7.81832 47.0793
1.57937 7.81785 47.0789
1.51102 7.80968 47.0027
1.06758 7.7632 46.8656
1.00363 7.7628 46.864
0.808744 7.75377 46.7837
0.61448 7.7446 46.7021
0.555462 7.72601 46.6726
0.491754 7.72547 46.6699
0.428049 7.72492 46.6671
0.369185 7.70626 46.6373
0.305525 7.70567 46.6342
0.241868 7.70507 46.6309
0.178218 7.70445 46.6275
0.114574 7.70382 46.6239
-0.0126936 7.70251 46.6164
-0.0763152 7.70183 46.6124
-0.449134 7.64627 46.3857
-0.512407 7.64548 46.3808
-0.575667 7.64467 46.3757
-0.638913 7.64385 46.3706
-0.702145 7.64301 46.3652
-0.765885 7.6348 46.2874
-0.955137 7.63216 46.2702
-1.38384 7.58218 46.1012
-1.44658 7.58116 46.0943
-1.50931 7.58013 46.0873
-1.57201 7.57909 46.0802
-1.63468 7.57803 46.0729
-1.75996 7.57587 46.0579
-1.81523 7.54961 45.953
-1.99492 7.52127 45.833
-2.05715 7.52012 45.825
-2.18154 7.51777 45.8084
-2.2437 7.51657 45.7999
-2.30582 7.51536 45.7913
-2.72633 7.47069 45.6761
-2.78814 7.46937 45.6665
-2.84991 7.46804 45.6568
-2.91165 7.46669 45.647
-2.97335 7.46533 45.6371
-3.03501 7.46396 45.627
-3.15824 7.46118 45.6065
-3.21979 7.45977 45.5961
-3.75729 7.4107 45.4457
-3.87944 7.40762 45.4224
-3.94045 7.40606 45.4106
-4.06233 7.40291 45.3866
-4.12321 7.40131 45.3744
-4.23711 7.3802 45.3242
-4.49756 7.40484 45.4353
-4.55829 7.40316 45.4223
-4.67161 7.38178 45.3702
-4.73217 7.38006 45.3568
9.16486 8.20017 49.1071
9.00392 8.18551 48.9739
8.94124 8.1875 48.993
8.30643 8.13002 48.7497
8.24338 8.13174 48.7666
8.02217 8.11857 48.6472
7.95901 8.1202 48.6632
7.89576 8.12181 48.679
7.83244 8.12341 48.6947
7.76904 8.12498 48.7101
7.67532 8.10839 48.5573
7.61208 8.09142 48.5412
7.54871 8.09291 48.556
7.48526 8.09438 48.5706
7.42198 8.0773 48.554
7.26615 8.06229 48.416
7.20267 8.06366 48.4298
7.13913 8.06501 48.4434
7.07551 8.06634 48.4569
7.01183 8.06766 48.4701
6.25893 8.00853 48.213
6.19501 8.00958 48.224
6.13102 8.01061 48.2348
5.91504 7.99624 48.1032
5.85105 7.99719 48.1133
5.787 7.99812 48.1233
5.7229 7.99903 48.133
5.65875 7.99992 48.1426
5.59454 8.0008 48.152
5.46598 8.00249 48.1704
5.18714 7.98839 48.0425
5.0791 8.00713 48.2213
5.01446 8.00784 48.2292
4.92953 7.99125 48.0743
4.39851 7.94218 47.9106
4.33397 7.94268 47.9168
4.2694 7.94316 47.9228
4.20478 7.94363 47.9287
3.92932 7.92848 47.7908
3.86741 7.91052 47.7672
3.80285 7.91087 47.7721
3.73826 7.9112 47.7768
3.67643 7.89315 47.7527
3.53192 7.87721 47.6037
3.40298 7.8777 47.6117
3.33847 7.87792 47.6155
3.27393 7.87812 47.6191
2.81538 7.82616 47.4272
2.75095 7.82621 47.4296
2.62203 7.82625 47.4339
2.55162 7.81823 47.3585
2.4814 7.81019 47.2829
2.41709 7.81015 47.2845
2.35276 7.8101 47.286
2.28841 7.81003 47.2873
1.83603 7.75687 47.084
1.77186 7.75666 47.0841
1.70769 7.75643 47.0841
1.57932 7.75592 47.0836
1.51095 7.74785 47.0073
1.44279 7.73976 46.931
1.31903 7.72104 46.9021
1.25935 7.70259 46.874
1.1954 7.70222 46.8728
1.13145 7.70184 46.8715
1.0675 7.70143 46.87
1.00355 7.70102 46.8684
0.875627 7.70013 46.8648
0.808643 7.69205 46.788
0.305413 7.64402 46.6382
0.241754 7.64341 46.635
0.178101 7.64278 46.6315
0.114453 7.64213 46.6279
0.050813 7.64147 46.6242
-0.0128196 7.64079 46.6203
-0.0780501 7.63267 46.5428
-0.269862 7.62308 46.4564
-0.70229 7.58147 46.3689
-0.76604 7.57336 46.291
-0.955299 7.57069 46.2738
-1.01848 7.56253 46.1955
-1.13857 7.54271 46.1569
-1.19563 7.52381 46.1244
-1.25844 7.52283 46.1179
-1.32123 7.52184 46.1113
-1.384 7.52083 46.1045
-1.44674 7.5198 46.0977
-1.50947 7.51877 46.0906
-1.57217 7.51772 46.0835
-1.63484 7.51665 46.0762
-1.99508 7.46015 45.8361
-2.05731 7.45899 45.828
-2.18171 7.45663 45.8115
-2.24386 7.45543 45.803
-2.30598 7.45421 45.7943
-2.36808 7.45299 45.7856
-2.43014 7.45174 45.7767
-2.49217 7.45049 45.7677
-2.55417 7.44922 45.7585
-2.97349 7.40422 45.6398
-3.03516 7.40284 45.6297
-3.15838 7.40006 45.6092
-3.21993 7.39865 45.5987
-3.34293 7.39579 45.5774
-3.39717 7.37646 45.5409
-3.5126 7.35565 45.4933
-3.57386 7.35417 45.4821
-3.7574 7.34964 45.4481
-3.87955 7.34656 45.4247
-3.94055 7.345 45.4129
9.16584 8.13759 49.1168
9.00486 8.12308 48.9835
8.94217 8.12502 49.0025
8.81568 8.11015 49.0072
8.71848 8.09375 48.8548
8.65568 8.09558 48.8729
8.59216 8.07879 48.8587
8.3702 8.06597 48.7417
8.30722 8.06767 48.7587
8.24416 8.06935 48.7755
8.0229 8.05628 48.6559
7.95972 8.05787 48.6719
7.4226 8.01495 48.5622
7.26673 8.0001 48.4241
7.20324 8.00143 48.4378
7.13969 8.00274 48.4514
7.07606 8.00403 48.4648
7.01237 8.00531 48.478
6.7302 7.99269 48.3633
6.66639 7.99386 48.3756
6.60252 7.99502 48.3877
6.53858 7.99615 48.3996
5.91541 7.93408 48.1103
5.85141 7.935 48.1204
5.78735 7.93589 48.1303
5.72324 7.93677 48.14
5.65908 7.93763 48.1496
5.59487 7.93847 48.1589
5.46629 7.9401 48.1772
5.31766 7.90632 48.0029
5.25345 7.90706 48.0114
5.1892 7.90778 48.0197
5.12491 7.90848 48.0279
5.06244 7.89081 48.0065
5.01471 7.94522 48.2357
4.80068 7.9301 48.0956
4.73817 7.9123 48.0734
4.67356 7.91288 48.0804
4.60892 7.91343 48.0872
4.39869 7.87984 47.9168
4.33415 7.88032 47.9229
4.26957 7.88077 47.9289
4.20495 7.88121 47.9348
4.14029 7.88163 47.9404
3.53201 7.81507 47.6093
3.40306 7.81551 47.6173
3.33854 7.81571 47.621
3.274 7.81588 47.6246
3.14484 7.81619 47.6313
2.62205 7.76409 47.4391
2.55163 7.75616 47.3636
2.4814 7.74821 47.288
2.41708 7.74815 47.2896
2.35275 7.74808 47.2911
2.2884 7.74799 47.2923
2.22403 7.74788 47.2934
2.09906 7.72943 47.2673
2.03854 7.71107 47.2402
1.96429 7.69541 47.0881
1.90014 7.69521 47.0885
1.83598 7.695 47.0888
1.77182 7.69476 47.0889
1.70764 7.69451 47.0888
1.57926 7.69397 47.0883
1.19533 7.64047 46.8773
1.13138 7.64007 46.8759
1.06742 7.63965 46.8745
1.00346 7.63922 46.8728
0.875535 7.6383 46.8691
0.80854 7.63031 46.7924
0.741752 7.62232 46.7155
0.61424 7.62128 46.7106
0.550486 7.62074 46.708
0.0506876 7.57976 46.6282
-0.0129479 7.57907 46.6243
-0.0781889 7.57104 46.5467
-0.143217 7.563 46.4691
-0.270017 7.56153 46.4603
-0.3334 7.56077 46.4558
-0.391445 7.54202 46.4245
-0.45477 7.54123 46.4197
-0.512685 7.52244 46.3882
-0.575949 7.52161 46.3831
-0.702436 7.51991 46.3725
-0.766197 7.5119 46.2947
-0.829741 7.50388 46.2167
-0.955224 7.51634 46.3497
-1.25859 7.46148 46.1213
-1.32138 7.46048 46.1147
-1.38415 7.45947 46.1079
-1.4469 7.45844 46.101
-1.57233 7.45634 46.0868
-1.63501 7.45526 46.0795
-1.76029 7.45308 46.0644
-1.82181 7.44502 45.9857
-2.18187 7.39547 45.8145
-2.24403 7.39427 45.806
-2.30615 7.39305 45.7974
-2.36825 7.39182 45.7886
-2.43031 7.39057 45.7797
-2.49234 7.38932 45.7706
-2.55434 7.38804 45.7615
-2.61631 7.38676 45.7522
-2.67151 7.36762 45.717
-2.73338 7.36631 45.7074
-2.78842 7.34714 45.6721
-2.85019 7.3458 45.6623
-2.91193 7.34445 45.6525
-2.97363 7.34309 45.6425
-3.0353 7.34172 45.6324
-3.15852 7.33893 45.6118
-3.57036 7.28661 45.4162
-3.75362 7.2821 45.3822
-3.9365 7.27748 45.3471
-4.12342 7.2792 45.379
-4.24504 7.27599 45.3542
-4.55845 7.28066 45.4265
-4.67976 7.27727 45.3999
9.16683 8.07498 49.1266
8.65587 8.01462 48.8501
8.59301 8.01636 48.8679
8.371 8.00365 48.7507
8.30801 8.00531 48.7676
8.24493 8.00694 48.7844
8.02362 7.99398 48.6647
7.96043 7.99553 48.6806
7.89717 7.99705 48.6963
7.83382 7.99856 48.7118
7.7704 8.00005 48.7272
7.26731 7.93789 48.4322
7.20381 7.93918 48.4459
7.14025 7.94045 48.4594
7.07661 7.9417 48.4727
7.01291 7.94293 48.4859
6.73068 7.9304 48.3711
6.66687 7.93153 48.3833
6.60298 7.93265 48.3953
6.53992 7.91534 48.3765
6.46313 7.90782 48.3058
6.3865 7.90039 48.2353
6.25977 7.88408 48.2276
6.19583 7.88506 48.2385
6.13183 7.88602 48.2493
6.00366 7.88787 48.2703
5.91577 7.87191 48.1175
5.85176 7.87279 48.1275
5.7877 7.87365 48.1373
5.72358 7.87449 48.147
5.65941 7.87532 48.1565
5.59519 7.87613 48.1659
4.39887 7.81749 47.9229
4.33432 7.81794 47.9291
4.26973 7.81837 47.935
4.2051 7.81878 47.9408
4.14044 7.81917 47.9465
3.5321 7.75291 47.615
3.40314 7.75331 47.6229
3.33861 7.75348 47.6266
3.27407 7.75363 47.6302
3.14489 7.75388 47.6368
3.0022 7.73815 47.4861
2.941 7.72005 47.4608
2.87657 7.7201 47.4634
2.81545 7.70195 47.4377
2.75101 7.70195 47.4401
2.62207 7.70191 47.4443
2.55163 7.69407 47.3688
2.4814 7.68622 47.2932
2.35273 7.68605 47.2962
1.96425 7.63356 47.093
1.9001 7.63334 47.0933
1.83594 7.63311 47.0936
1.77177 7.63285 47.0936
1.70759 7.63259 47.0936
1.6434 7.6323 47.0933
1.5792 7.63201 47.093
1.51081 7.62412 47.0167
1.44263 7.61623 46.9403
0.87544 7.57645 46.8735
0.808434 7.56856 46.7967
0.741636 7.56066 46.7198
0.614117 7.5596 46.7149
0.55036 7.55904 46.7123
0.486605 7.55847 46.7095
0.422854 7.55789 46.7065
0.36398 7.5393 46.6765
0.300274 7.53867 46.6733
0.236573 7.53804 46.6699
0.177859 7.51939 46.6396
0.114206 7.51871 46.6359
-0.0130784 7.51733 46.6282
-0.0783299 7.5094 46.5507
-0.143369 7.50146 46.473
-0.576094 7.46007 46.3868
-0.702585 7.45835 46.3762
-0.766356 7.45043 46.2983
-0.82991 7.44251 46.2203
-0.955875 7.44069 46.2087
-1.01883 7.43975 46.2026
-1.08177 7.4388 46.1965
-1.44706 7.39706 46.1043
-1.57249 7.39494 46.0901
-1.63518 7.39386 46.0827
-1.76046 7.39166 46.0677
-1.82199 7.38371 45.9889
-1.87707 7.35796 45.8842
-2.00169 7.35566 45.8682
-2.05764 7.33669 45.8342
-2.18204 7.33431 45.8176
-2.24419 7.3331 45.809
-2.30632 7.33188 45.8004
-2.36842 7.33064 45.7916
-2.43048 7.32939 45.7827
-2.85034 7.28468 45.6651
-2.97378 7.28196 45.6452
-3.03545 7.28058 45.6351
-3.15867 7.27779 45.6145
-3.21709 7.26986 45.535
-3.40466 7.27206 45.5718
-3.74986 7.21475 45.3164
-3.93662 7.21651 45.3495
-4.12353 7.21814 45.3813
-4.55853 7.2194 45.4286
-4.67984 7.21601 45.402
-4.74042 7.2143 45.3885
9.16782 8.01235 49.1364
9.00676 7.99813 49.0028
8.94403 7.99997 49.0217
8.3718 7.94131 48.7597
8.30879 7.94291 48.7766
8.24571 7.9445 48.7933
8.02435 7.93165 48.6735
7.96115 7.93315 48.6893
7.89787 7.93463 48.705
7.83451 7.9361 48.7204
7.77107 7.93754 48.7357
7.69246 7.91177 48.635
7.61401 7.90457 48.5664
7.55061 7.90593 48.581
7.48733 7.88887 48.5643
7.42382 7.89019 48.5786
7.26789 7.87565 48.4403
7.14081 7.87813 48.4674
7.07716 7.87934 48.4807
7.01345 7.88054 48.4938
6.88582 7.88287 48.5195
6.82191 7.88401 48.5321
6.26019 7.82183 48.235
6.19624 7.82277 48.2458
6.13223 7.82369 48.2566
6.00404 7.82548 48.2775
5.91614 7.80971 48.1246
5.85212 7.81056 48.1346
5.78805 7.81139 48.1444
5.72392 7.8122 48.154
5.65974 7.81299 48.1635
5.59551 7.81376 48.1728
5.4669 7.81526 48.1909
5.31651 7.80013 48.046
4.80112 7.80511 48.1086
4.33449 7.75554 47.9352
4.26989 7.75594 47.9411
4.20526 7.75632 47.9469
4.14059 7.75669 47.9525
3.8651 7.74185 47.8136
3.8032 7.72389 47.7896
3.73859 7.72415 47.7942
3.67395 7.72439 47.7987
3.53218 7.69074 47.6207
3.40321 7.69108 47.6285
3.33868 7.69123 47.6322
3.27413 7.69136 47.6357
3.14495 7.69156 47.6423
2.75104 7.6398 47.4453
2.62208 7.63972 47.4495
2.55164 7.63197 47.374
2.48139 7.62421 47.2984
2.35272 7.624 47.3013
2.28836 7.62387 47.3025
2.22398 7.62372 47.3035
1.77172 7.57093 47.0984
1.70753 7.57065 47.0983
1.64334 7.57034 47.0981
1.57913 7.57003 47.0977
1.51074 7.56224 47.0214
1.44254 7.55444 46.945
1.3145 7.5537 46.9432
1.2548 7.53533 46.9148
1.19081 7.53491 46.9135
1.12681 7.53448 46.9121
1.06725 7.51604 46.8833
1.00328 7.51557 46.8817
0.875343 7.5146 46.8778
0.808326 7.5068 46.8011
0.741517 7.49899 46.7242
0.114079 7.45699 46.64
-0.0132111 7.45557 46.6322
-0.0784732 7.44774 46.5547
-0.143522 7.4399 46.477
-0.270333 7.43838 46.4682
-0.333722 7.4376 46.4635
-0.766517 7.38895 46.302
-0.830082 7.38113 46.224
-0.956051 7.37929 46.2123
-1.01901 7.37834 46.2063
-1.08195 7.37739 46.2001
-1.14487 7.37642 46.1937
-1.20193 7.3576 46.161
-1.26478 7.3566 46.1544
-1.3217 7.33775 46.1215
-1.38448 7.33672 46.1147
-1.44723 7.33567 46.1077
-1.57266 7.33354 46.0934
-1.63534 7.33245 46.086
-1.76064 7.33024 46.0709
-2.12002 7.27434 45.8291
-2.18221 7.27314 45.8206
-2.24436 7.27192 45.8121
-2.30649 7.2707 45.8034
-2.36859 7.26946 45.7946
-2.43065 7.2682 45.7856
-2.49269 7.26694 45.7766
-2.55469 7.26566 45.7674
-2.61666 7.26437 45.758
-2.6786 7.26306 45.7486
-3.15882 7.21664 45.6171
-3.21725 7.20882 45.5377
-3.40141 7.20451 45.5055
-3.57786 7.18234 45.4465
-3.75386 7.16015 45.387
-3.93674 7.15554 45.3518
-4.11922 7.15082 45.3156
-4.55861 7.15813 45.4307
9.16881 7.94969 49.1462
9.0077 7.93562 49.0125
8.94496 7.93741 49.0313
8.8184 7.92238 49.0355
8.72112 7.90656 48.883
8.6576 7.88979 48.8687
8.59471 7.89144 48.8864
8.3726 7.87893 48.7688
8.30958 7.8805 48.7856
8.24648 7.88204 48.8023
8.02507 7.86929 48.6823
7.48795 7.8265 48.5726
7.42444 7.82777 48.5868
7.26847 7.81339 48.4484
7.20495 7.8146 48.4621
7.14137 7.81579 48.4755
7.07771 7.81697 48.4887
7.01399 7.81812 48.5018
6.73166 7.80575 48.3866
6.66782 7.80681 48.3987
6.60392 7.80785 48.4106
6.19664 7.76046 48.2532
6.13263 7.76134 48.2638
5.9165 7.7475 48.1318
5.85247 7.74831 48.1417
5.78839 7.7491 48.1515
5.72426 7.74988 48.1611
5.66007 7.75064 48.1705
5.59583 7.75138 48.1798
5.38269 7.719 48.0146
5.31851 7.71966 48.0232
5.25428 7.7203 48.0315
5.19001 7.72093 48.0397
5.12754 7.70331 48.0182
4.80341 7.72431 48.0855
4.73882 7.72481 48.0926
4.67419 7.7253 48.0995
4.60952 7.72577 48.1062
4.54481 7.72622 48.1127
4.39922 7.69273 47.9353
4.33466 7.69312 47.9414
4.27006 7.6935 47.9473
4.20542 7.69385 47.953
4.14074 7.69419 47.9586
3.61224 7.64395 47.7799
3.40328 7.62884 47.6342
3.33875 7.62896 47.6378
3.27419 7.62907 47.6413
3.20961 7.62916 47.6447
3.145 7.62923 47.6478
3.08036 7.62928 47.6508
3.00225 7.61386 47.4971
2.55164 7.56985 47.3792
2.48138 7.56218 47.3036
2.3527 7.56193 47.3064
2.28833 7.56178 47.3076
2.22395 7.56161 47.3086
2.15956 7.56143 47.3095
2.09515 7.56123 47.3102
2.02956 7.53543 47.2061
1.96417 7.50981 47.1027
1.90001 7.50955 47.1031
1.83585 7.50928 47.1032
1.77167 7.50899 47.1033
1.70748 7.50869 47.1031
1.64328 7.50837 47.1028
1.57907 7.50804 47.1024
1.51066 7.50034 47.0261
1.00319 7.45373 46.8861
0.875243 7.45272 46.8822
0.808216 7.44502 46.8054
0.741396 7.43731 46.7286
0.613863 7.43619 46.7236
0.5501 7.43561 46.7208
0.486339 7.43501 46.718
0.422581 7.4344 46.715
0.358827 7.43377 46.7118
-0.0786187 7.38607 46.5586
-0.143679 7.37833 46.481
-0.207092 7.37757 46.4766
-0.270494 7.37679 46.4721
-0.333886 7.37599 46.4675
-0.397266 7.37519 46.4627
-0.460634 7.37436 46.4577
-0.518553 7.35566 46.426
-0.58186 7.35481 46.4209
-0.702889 7.33518 46.3836
-0.766681 7.32746 46.3057
-0.830256 7.31973 46.2277
-0.95623 7.31787 46.2159
-1.01919 7.31692 46.2099
-1.38464 7.27532 46.1181
-1.44739 7.27427 46.1111
-1.57283 7.27213 46.0967
-1.63551 7.27103 46.0894
-1.82235 7.26106 45.9954
-1.88368 7.2533 45.9166
-2.30666 7.2095 45.8064
-2.36876 7.20826 45.7976
-2.43083 7.207 45.7886
-2.49286 7.20573 45.7796
-2.55487 7.20445 45.7703
-2.61684 7.20316 45.761
-2.67877 7.20185 45.7515
-2.74068 7.20053 45.7419
-2.80255 7.1992 45.7322
-2.85751 7.18012 45.6965
-2.97407 7.15966 45.6507
-3.03574 7.15828 45.6405
-3.15897 7.15548 45.6198
-3.21741 7.14776 45.5404
-3.75399 7.09917 45.3894
-3.93686 7.09455 45.3542
-4.11934 7.08984 45.3179
-4.55363 7.09072 45.3648
-4.67999 7.09349 45.4061
-4.74057 7.09178 45.3926
8.72128 7.82571 48.8602
8.65846 7.82734 48.878
8.59557 7.82894 48.8956
8.3734 7.81654 48.7779
8.31037 7.81806 48.7947
8.24726 7.81955 48.8113
8.0258 7.80691 48.6911
7.96257 7.80833 48.7068
7.89927 7.80973 48.7224
7.83589 7.8111 48.7378
7.77243 7.81246 48.7529
7.33251 7.74992 48.4429
7.26905 7.75111 48.4566
7.20552 7.75228 48.4702
7.14193 7.75343 48.4836
7.07826 7.75456 48.4968
7.01453 7.75568 48.5098
6.88686 7.75786 48.5353
6.7329 7.72515 48.3636
6.6691 7.72616 48.3756
6.60523 7.72715 48.3875
6.5413 7.72813 48.3993
6.46447 7.72084 48.3284
6.38779 7.71366 48.2579
6.26102 7.69726 48.2497
6.19705 7.69812 48.2605
6.13302 7.69897 48.2712
6.0048 7.70062 48.2919
5.91686 7.68526 48.139
5.85282 7.68604 48.1489
5.78873 7.6868 48.1586
5.55451 7.62095 47.8052
5.49073 7.62161 47.8142
5.4269 7.62226 47.823
5.36302 7.62289 47.8317
5.29909 7.6235 47.8402
5.08642 7.60959 47.7055
5.02252 7.61014 47.7133
4.3994 7.63033 47.9416
4.33483 7.63069 47.9476
4.27022 7.63103 47.9534
4.20557 7.63136 47.9591
4.14089 7.63167 47.9647
3.86532 7.61709 47.8256
3.40335 7.56658 47.6399
3.33882 7.56668 47.6435
3.27425 7.56676 47.6469
3.20966 7.56683 47.6502
3.14504 7.56687 47.6534
3.0804 7.56691 47.6563
3.00228 7.55169 47.5026
2.87664 7.53362 47.4795
2.81217 7.53358 47.4819
2.75108 7.51546 47.4559
2.68661 7.51538 47.458
2.62211 7.51528 47.4599
2.55164 7.50772 47.3844
2.48137 7.50014 47.3088
2.35268 7.49985 47.3115
2.28831 7.49968 47.3127
2.22392 7.49949 47.3137
1.83579 7.44734 47.1081
1.77161 7.44704 47.1081
1.70742 7.44672 47.1079
1.64321 7.44638 47.1076
1.579 7.44603 47.1072
1.51058 7.43843 47.0309
1.31431 7.43001 46.9525
1.25028 7.42959 46.9513
0.808103 7.38323 46.8098
0.741272 7.37562 46.7329
0.613733 7.37447 46.7279
0.549966 7.37387 46.7252
0.486202 7.37326 46.7223
0.422441 7.37263 46.7192
0.358684 7.37199 46.7161
0.299876 7.35345 46.6857
0.236166 7.35278 46.6823
0.172462 7.35209 46.6787
0.113818 7.33349 46.648
-0.0134834 7.33203 46.6402
-0.0787664 7.32439 46.5626
-0.143837 7.31675 46.485
-0.207253 7.31597 46.4806
-0.270658 7.31518 46.476
-0.703045 7.27358 46.3872
-0.766846 7.26596 46.3094
-0.830432 7.25833 46.2314
-0.95641 7.25645 46.2196
-1.01937 7.25549 46.2135
-1.08232 7.25452 46.2072
-1.14524 7.25353 46.2009
-1.20815 7.25253 46.1944
-1.63492 7.20308 46.0216
-1.82254 7.19971 45.9987
-1.88387 7.19205 45.9199
-2.00857 7.18973 45.9037
-2.06451 7.17086 45.8695
-2.12676 7.16966 45.8612
-2.18255 7.15076 45.8268
-2.24471 7.14954 45.8182
-2.30684 7.1483 45.8095
-2.36894 7.14705 45.8006
-2.431 7.14579 45.7916
-2.49304 7.14452 45.7825
-2.55504 7.14323 45.7733
-2.61701 7.14193 45.7639
-3.03589 7.09712 45.6432
-3.15912 7.09431 45.6225
-3.21757 7.0867 45.543
-3.40172 7.08239 45.5108
-3.58918 7.08414 45.546
-3.99364 7.02595 45.2766
-4.11946 7.02885 45.3202
-4.55372 7.02954 45.3669
-4.68007 7.03221 45.4082
-4.74065 7.03051 45.3947
9.17079 7.82429 49.1659
9.0096 7.81051 49.032
8.65933 7.76486 48.8874
8.59642 7.76641 48.9049
8.3742 7.75412 48.7871
8.31116 7.75559 48.8038
8.24803 7.75704 48.8203
8.02652 7.74451 48.7
7.96314 7.72758 48.6837
7.89987 7.72892 48.6992
7.83653 7.73024 48.7145
7.7731 7.7132 48.6978
7.69444 7.72447 48.6606
7.61606 7.69925 48.5605
7.55267 7.70047 48.5749
7.4892 7.70168 48.5893
7.42567 7.70287 48.6034
7.26963 7.6888 48.4648
7.20609 7.68993 48.4783
7.14248 7.69105 48.4917
7.07881 7.69214 48.5048
7.01506 7.69322 48.5178
6.86149 7.64264 48.3159
6.77109 7.62766 48.165
6.7076 7.62863 48.1771
6.58043 7.63052 48.2008
6.42754 7.61644 48.0613
6.30031 7.61818 48.0836
5.95744 7.60643 47.9744
5.61856 7.55842 47.8031
5.55482 7.55907 47.8122
5.49103 7.5597 47.8211
5.42719 7.56031 47.8299
5.3633 7.56091 47.8385
5.21434 7.54665 47.6962
5.08666 7.54772 47.7122
5.02275 7.54824 47.7199
4.78622 7.56555 47.9085
4.27037 7.56855 47.9596
4.20572 7.56885 47.9653
4.14103 7.56914 47.9708
4.07631 7.56941 47.9761
4.01155 7.56966 47.9813
3.86543 7.55468 47.8315
3.80354 7.53676 47.8072
3.73891 7.53694 47.8118
3.67425 7.5371 47.8161
3.60956 7.53725 47.8203
3.33888 7.50438 47.6491
3.27431 7.50444 47.6526
3.20971 7.50448 47.6558
3.14509 7.5045 47.6589
3.08045 7.50451 47.6619
2.68662 7.45316 47.4633
2.62212 7.45304 47.4652
2.55164 7.44557 47.3897
2.48136 7.43809 47.314
2.35265 7.43775 47.3167
2.28828 7.43756 47.3178
2.22389 7.43736 47.3188
2.15949 7.43713 47.3196
2.09507 7.4369 47.3203
