-0.815005 6.10037 43.3059
-1.21601 6.05352 43.1024
-1.91979 6.04844 43.1476
-2.40958 6.09555 43.4981
-6.61589 6.6611 47.1632
-6.67757 6.65905 47.1443
7.40913 7.827 53.9671
7.20165 7.7489 53.4913
7.13086 7.74977 53.5036
7.02826 7.73175 53.3067
6.9576 7.73258 53.3185
6.75665 7.65635 52.8552
6.68645 7.65708 52.8662
6.5867 7.63962 52.6741
6.5176 7.62017 52.6481
6.41989 7.5829 52.4219
6.35008 7.58353 52.432
6.19975 7.49231 51.7814
6.13072 7.49288 51.791
5.96618 7.47697 51.6167
5.80561 7.42218 51.3749
5.64496 7.38721 51.1688
5.48554 7.3525 50.9646
5.17042 7.28383 50.56
5.01263 7.26884 50.3927
4.94491 7.26907 50.3994
4.36757 7.20205 50.024
4.09735 7.20226 50.0431
3.94701 7.16857 49.8436
3.79781 7.13512 49.6459
3.56961 7.06907 49.2511
3.50289 7.06895 49.2544
3.42053 7.05475 49.0882
3.13175 6.98987 48.705
2.99238 6.93969 48.4857
2.77568 6.87667 48.1093
2.69761 6.86351 47.9516
2.63245 6.86319 47.9531
2.49744 6.81428 47.7402
2.42085 6.80144 47.5851
2.35047 6.79487 47.5085
2.28782 6.75318 47.3754
2.21793 6.74671 47.2995
2.14824 6.74023 47.2235
1.94844 6.68621 46.9418
1.87968 6.67985 46.8668
1.68295 6.62653 46.5889
1.61929 6.60316 46.4875
1.55161 6.57434 46.3144
1.48852 6.57376 46.3136
1.29255 6.51618 45.9702
1.22991 6.51556 45.969
1.16005 6.5042 45.826
1.03729 6.4588 45.6305
0.975096 6.45812 45.6288
0.906515 6.44703 45.4881
0.853701 6.41305 45.4344
0.785741 6.40217 45.2951
0.723998 6.40144 45.293
0.537847 6.34628 44.9641
0.476553 6.34551 44.9615
0.29354 6.29112 44.6372
0.232696 6.2903 44.6342
0.117073 6.24678 44.4474
0.0546251 6.2413 44.3793
-0.12141 6.19279 44.1268
-0.183052 6.18741 44.0594
-0.416144 6.13856 43.806
-0.477984 6.12892 43.677
-0.526855 6.09634 43.6251
-0.588159 6.08688 43.4974
-0.756334 6.04417 43.3144
-0.815291 6.04317 43.3097
-0.874234 6.04217 43.3048
-0.934082 6.03293 43.1788
-1.33334 5.98637 42.9753
-1.39174 5.9853 42.9696
-1.45013 5.98421 42.9637
-1.50264 5.96757 42.9346
-1.62518 5.9809 42.9453
-6.32657 6.56401 46.9152
-6.61582 6.59666 47.1646
-6.67749 6.59462 47.1457
7.48108 7.75561 53.9629
7.40982 7.75654 53.9759
7.30524 7.73829 53.7751
7.02887 7.66214 53.3152
6.9582 7.66293 53.3269
6.85794 7.60461 53.0565
6.75721 7.58731 52.8634
6.46148 7.49644 52.2212
6.13116 7.42521 51.7988
6.03548 7.40902 51.6153
5.96795 7.38998 51.5896
5.806 7.35502 51.3824
5.55413 7.28551 50.9639
5.48588 7.28585 50.9719
5.32586 7.27076 50.8022
5.10282 7.21792 50.5741
5.0129 7.20289 50.3998
4.94516 7.20309 50.4063
4.85609 7.18814 50.2329
4.79071 7.16948 50.2067
4.72538 7.15078 50.1803
4.52258 7.15111 50.1975
4.45491 7.15118 50.2029
4.30024 7.1365 50.0356
4.0975 7.13655 50.0495
3.86509 7.06998 49.6483
3.79792 7.06991 49.6521
3.50297 7.00422 49.2604
3.4206 6.99025 49.0943
3.35721 6.97174 49.0665
3.27883 6.9397 48.8716
3.21255 6.93948 48.8742
3.0582 6.87621 48.4893
2.9924 6.87594 48.4914
2.91298 6.86266 48.331
2.84736 6.86236 48.3328
2.69758 6.80046 47.9572
2.63243 6.80012 47.9586
2.5623 6.75187 47.7445
2.49741 6.75149 47.7456
2.21786 6.68449 47.3049
2.14816 6.6781 47.2288
2.0839 6.67764 47.2291
1.94835 6.62443 46.947
1.87958 6.61817 46.8719
1.82393 6.58313 46.8163
1.75088 6.57133 46.6679
1.67833 6.55961 46.5204
1.55148 6.51337 46.3193
1.48839 6.51278 46.3185
1.41718 6.50134 46.1733
1.22976 6.45501 45.9738
1.15987 6.44384 45.8308
1.10189 6.42641 45.8029
1.03711 6.39869 45.6352
0.974917 6.398 45.6335
0.785544 6.34248 45.2997
0.723799 6.34175 45.2975
0.53763 6.28701 44.9686
0.476334 6.28623 44.9659
0.415043 6.25955 44.8045
0.358825 6.24244 44.7766
0.293304 6.23226 44.6416
0.116836 6.18816 44.4517
0.0543781 6.18276 44.3835
-0.183317 6.12927 44.0636
-0.244784 6.12397 43.9961
-0.295675 6.0869 43.881
-0.356739 6.08168 43.8141
-0.588447 6.02946 43.5013
-0.647675 6.02848 43.4969
-0.874525 5.98496 43.3086
-0.934389 5.97588 43.1826
-0.987569 5.95929 43.1543
-1.16344 5.9601 43.1985
-1.21659 5.93951 43.1097
-1.92038 5.93392 43.1543
-5.74795 6.41864 46.3948
-6.61574 6.53221 47.166
-6.67741 6.53019 47.1471
7.41051 7.68605 53.9847
7.30625 7.64743 53.7451
7.20295 7.60921 53.5085
7.13213 7.61 53.5206
6.63 7.44408 52.4066
6.46299 7.40843 52.1931
6.3946 7.38919 52.1671
6.29727 7.37305 51.9815
6.1316 7.35752 51.8066
5.96974 7.30307 51.5625
5.80639 7.28784 51.3899
5.48622 7.21917 50.9792
5.32617 7.20429 50.8095
5.24844 7.17779 50.6913
5.171 7.1515 50.5742
5.1031 7.15171 50.5811
5.01316 7.13691 50.4068
4.72561 7.08504 50.1871
4.63763 7.07059 50.0156
4.30042 7.07085 50.0421
4.23286 7.07085 50.0469
4.09766 7.07082 50.056
3.79804 7.00467 49.6584
3.64999 6.97196 49.4616
3.50305 6.93948 49.2665
3.27888 6.87546 48.8775
3.21259 6.87522 48.8801
3.1318 6.86181 48.7168
2.99242 6.81218 48.4971
2.91298 6.79911 48.3367
2.84735 6.79879 48.3385
2.77567 6.75014 48.1205
2.71031 6.74978 48.122
2.49737 6.68868 47.7511
2.42075 6.67626 47.596
2.35603 6.67583 47.5969
2.21779 6.62224 47.3102
2.14808 6.61595 47.2342
2.07342 6.60391 47.0825
2.01723 6.5688 47.0271
1.94825 6.56264 46.9522
1.81432 6.51045 46.6733
1.75077 6.50989 46.673
1.6782 6.49837 46.5254
1.48825 6.45178 46.3235
1.41703 6.44053 46.1783
1.35847 6.42301 46.1503
1.29225 6.3951 45.9799
1.2296 6.39444 45.9786
1.03693 6.33857 45.6399
0.974736 6.33786 45.6381
0.906121 6.32715 45.4974
0.785346 6.28278 45.3043
0.723597 6.28203 45.3021
0.65624 6.27158 45.1636
0.604163 6.23798 45.1101
0.537411 6.22773 44.973
0.476112 6.22693 44.9704
0.358603 6.18339 44.7809
0.293066 6.17339 44.646
0.232217 6.17255 44.6429
0.0522454 6.11976 44.323
-0.00815344 6.11888 44.3195
-0.0583223 6.08592 44.2667
-0.121923 6.07634 44.135
-0.182056 6.07543 44.1313
-0.297323 6.02478 43.8222
-0.357014 6.02384 43.8182
-0.417881 6.01872 43.7516
-0.588737 5.97202 43.5053
-0.647968 5.97104 43.5008
-0.756911 5.92976 43.3221
-0.815872 5.92875 43.3173
-0.874819 5.92773 43.3124
-1.33396 5.87266 42.9826
-1.39237 5.87156 42.9768
-1.45076 5.87047 42.9709
-5.74798 6.35557 46.3967
-6.61566 6.46776 47.1675
-6.67732 6.46575 47.1485
7.30726 7.55666 53.715
7.03861 7.44649 52.8345
6.96864 7.44718 52.8462
6.86801 7.43058 52.6551
6.79892 7.41127 52.6295
6.70013 7.37504 52.404
6.63053 7.37563 52.4147
6.29774 7.30513 51.9894
6.13204 7.28981 51.8144
6.06292 7.29025 51.8237
5.80677 7.22064 51.3975
5.64443 7.20566 51.2254
5.48656 7.15248 50.9865
5.17129 7.0853 50.5813
5.10338 7.08548 50.5882
5.01342 7.07092 50.4138
4.94567 7.07106 50.4203
4.63784 7.00506 50.0224
4.57046 7.00511 50.028
4.36811 7.00518 50.0438
4.30059 7.00518 50.0487
4.09781 7.00507 50.0624
3.94741 6.97212 49.8627
3.79815 6.93942 49.6647
3.73094 6.93928 49.6682
3.50313 6.87471 49.2726
3.42071 6.86118 49.1064
3.21264 6.81094 48.886
3.13183 6.79775 48.7227
3.06908 6.77939 48.6946
2.99243 6.74839 48.5029
2.77566 6.68684 48.1261
2.71029 6.68647 48.1276
2.63236 6.67394 47.9699
2.42069 6.61364 47.6015
2.34458 6.6015 47.4474
2.28764 6.56617 47.3915
2.21772 6.55998 47.3156
2.01714 6.5069 47.0324
1.94815 6.50083 46.9574
1.87936 6.49475 46.8823
1.75066 6.44844 46.678
1.67807 6.43711 46.5305
1.61471 6.43652 46.5299
1.55121 6.39138 46.3293
1.48811 6.39076 46.3284
1.29209 6.33453 45.9847
1.22944 6.33386 45.9834
1.15952 6.32308 45.8405
0.974552 6.27771 45.6428
0.90592 6.26719 45.5021
0.853155 6.23338 45.4481
0.785144 6.22307 45.3089
0.723392 6.2223 45.3067
0.537189 6.16843 44.9775
0.475887 6.16762 44.9748
0.292825 6.11451 44.6503
0.231973 6.11366 44.6472
0.176945 6.07174 44.4635
0.116353 6.07086 44.4602
0.0519861 6.06128 44.3273
-0.122183 6.01809 44.1392
-0.183854 6.01296 44.0719
-0.357291 5.966 43.8223
-0.418168 5.96096 43.7557
-0.478862 5.95592 43.689
-0.527679 5.92352 43.637
-0.58903 5.91457 43.5093
-0.816167 5.87152 43.3212
-0.875115 5.87049 43.3163
-0.93501 5.86175 43.1903
-1.33428 5.81578 42.9863
-1.39269 5.81468 42.9804
-1.45108 5.81357 42.9745
-1.50299 5.78966 42.8271
-3.43368 5.99571 44.3827
21.4883 16.2799 113.587
7.31282 7.45027 53.2926
7.22664 7.422 53.1632
7.14034 7.41409 53.0726
6.80023 7.32263 52.6009
6.63106 7.30716 52.4229
6.29821 7.23718 51.9973
6.13248 7.22207 51.8223
5.97057 7.16822 51.5778
5.80716 7.15341 51.4051
5.55517 7.08551 50.9861
5.48689 7.08576 50.9939
5.32678 7.07129 50.8241
4.94592 7.00502 50.4274
4.87812 7.00512 50.4337
4.79361 6.95343 50.1948
4.72607 6.95349 50.2007
4.63804 6.9395 50.0292
4.57066 6.93953 50.0348
4.30076 6.93949 50.0553
3.86545 6.87429 49.6673
3.79826 6.87414 49.671
3.5032 6.80993 49.2787
3.35421 6.79638 49.1153
3.21268 6.74664 48.8919
2.9266 6.68425 48.5106
2.84734 6.6716 48.35
2.63233 6.61082 47.9755
2.5622 6.56344 47.761
2.49729 6.563 47.7621
2.42063 6.551 47.607
2.21764 6.49771 47.3209
2.14791 6.4916 47.2449
1.94805 6.439 46.9626
1.87925 6.43302 46.8875
1.81409 6.38755 46.6835
1.75054 6.38696 46.6831
1.48797 6.32973 46.3334
1.41672 6.31887 46.1882
1.15933 6.26267 45.8453
1.09687 6.26196 45.8437
1.03657 6.21827 45.6494
0.974366 6.21754 45.6475
0.78494 6.16334 45.3135
0.723184 6.16256 45.3113
0.655794 6.15248 45.1727
0.47566 6.1083 44.9793
0.411929 6.10297 44.9097
0.358151 6.06525 44.7897
0.292581 6.05561 44.6547
0.051724 6.00279 44.3316
-0.00867994 6.00189 44.328
-0.185668 5.95066 44.0125
-0.245622 5.94972 44.0086
-0.305566 5.94878 44.0045
-0.357571 5.90814 43.8263
-0.417257 5.90717 43.8221
-0.589326 5.85711 43.5132
-0.648561 5.85611 43.5087
-0.935325 5.80467 43.1941
-0.994467 5.79989 43.1289
-1.1701 5.80418 43.2332
-1.22894 5.79935 43.1673
-1.27617 5.75998 42.9957
-1.3346 5.75889 42.9899
-1.39301 5.75778 42.9841
-6.6155 6.33884 47.1703
-6.67716 6.33685 47.1514
7.48758 7.3966 53.4844
7.14145 7.32473 53.0437
6.96982 7.30917 52.8632
6.89976 7.30977 52.8745
6.70121 7.23815 52.4205
6.63159 7.23867 52.4312
6.46346 7.22346 52.2536
6.39608 7.1846 52.1909
6.29868 7.16921 52.0053
5.80754 7.08616 51.4128
5.41889 7.01921 51.0088
5.32708 7.00475 50.8314
5.2589 7.00492 50.8385
5.17187 6.95284 50.5956
5.10394 6.95296 50.6024
5.03597 6.95306 50.609
4.94617 6.93895 50.4344
4.7263 6.88768 50.2076
4.57086 6.87393 50.0416
3.79837 6.80885 49.6773
3.64726 6.79523 49.5116
3.58632 6.75829 49.452
3.50328 6.74513 49.2848
3.4365 6.74487 49.2877
3.21272 6.68232 48.8979
2.92661 6.6204 48.5164
2.84732 6.60797 48.3558
2.71026 6.55979 48.1389
2.63229 6.54768 47.9811
2.49725 6.50014 47.7676
2.42057 6.48834 47.6126
2.35584 6.48786 47.6133
2.14782 6.4294 47.2502
2.07832 6.42342 47.1745
2.01696 6.38305 47.0429
1.94795 6.37716 46.9679
1.75042 6.32547 46.6883
1.6778 6.31454 46.5407
1.61443 6.31392 46.54
1.41656 6.25802 46.1932
1.35363 6.25734 46.192
1.29176 6.21335 45.9944
1.22911 6.21264 45.9931
1.03639 6.1581 45.6541
0.974177 6.15735 45.6523
0.90551 6.14721 45.5116
0.722974 6.1028 45.3159
0.655567 6.09291 45.1774
0.593998 6.0921 45.1748
0.536738 6.04979 44.9865
0.47543 6.04896 44.9838
0.292335 5.9967 44.6591
0.231477 5.99582 44.656
0.0514593 5.94429 44.3358
-0.00894724 5.94338 44.3323
-0.0710455 5.93833 44.2643
-0.122713 5.90155 44.1476
-0.184402 5.89659 44.0802
-0.357854 5.85027 43.8304
-0.418749 5.84539 43.7638
-0.479461 5.84051 43.6972
-0.648862 5.79863 43.5126
-0.768714 5.78905 43.3808
-0.816764 5.75701 43.3289
-0.935642 5.74757 43.198
-1.33492 5.70198 42.9936
-1.39333 5.70087 42.9877
-1.45173 5.69975 42.9817
-1.5098 5.69509 42.9164
-2.86301 5.82519 43.9227
-3.43415 5.8767 44.3883
-5.90273 6.2078 46.5653
-6.33573 6.26203 46.9502
7.48828 7.3268 53.4933
7.14208 7.25547 53.0523
6.97041 7.24012 52.8717
6.88571 7.21254 52.744
6.80136 7.18519 52.6175
6.63212 7.17015 52.4394
6.29915 7.10121 52.0133
6.13336 7.08652 51.8381
5.87662 7.01862 51.4119
5.80793 7.01889 51.4204
5.64713 6.98545 51.2136
5.57858 6.98566 51.2215
5.48756 6.95225 51.0087
5.41922 6.95242 51.0162
5.10422 6.88666 50.6095
5.03624 6.88674 50.6161
4.94642 6.87286 50.4415
4.8786 6.8729 50.4477
4.65892 6.82184 50.2201
4.57106 6.8083 50.0484
4.50362 6.80826 50.0537
4.41907 6.77635 49.8507
4.35185 6.77627 49.8556
4.21467 6.79454 49.8972
4.14997 6.77595 49.8695
4.08534 6.75733 49.8418
3.94779 6.7755 49.8819
3.79848 6.74354 49.6836
3.5701 6.68057 49.288
3.50335 6.6803 49.2909
3.3543 6.66716 49.1275
3.06576 6.6051 48.7426
2.92662 6.55655 48.5222
2.77562 6.49686 48.1432
2.71024 6.49642 48.1446
2.63225 6.48453 47.9868
2.56705 6.48407 47.9879
2.42051 6.42567 47.6181
2.35577 6.42517 47.6188
2.28362 6.39633 47.4361
2.22297 6.37848 47.4081
2.14773 6.36718 47.2556
2.01686 6.32109 47.0481
1.94784 6.3153 46.9731
1.87901 6.30949 46.898
1.67766 6.25323 46.5459
1.61428 6.25259 46.5452
1.54656 6.2251 46.3713
1.48768 6.20761 46.3434
1.41639 6.19715 46.1982
1.2916 6.15273 45.9993
1.22894 6.15201 45.9979
1.15896 6.14181 45.855
0.973985 6.09715 45.657
0.905302 6.0872 45.5163
0.784523 6.04383 45.3228
0.722761 6.04302 45.3205
0.536508 5.99045 44.991
0.475197 5.9896 44.9883
0.409004 5.98014 44.8519
0.231225 5.93688 44.6604
0.166236 5.92765 44.5261
0.110587 5.91078 44.4979
0.0511918 5.88577 44.3402
-0.00921724 5.88485 44.3366
-0.18468 5.83838 44.0844
-0.246193 5.83349 44.0169
-0.306143 5.83252 44.0128
-0.419043 5.78759 43.7679
-0.479765 5.78279 43.7012
-0.539261 5.78179 43.6968
-0.589927 5.74215 43.5212
-0.649165 5.74113 43.5166
-0.935962 5.69046 43.2018
-0.995121 5.68584 43.1366
-1.17073 5.68973 43.2407
-1.2296 5.68506 43.1747
-1.39366 5.64395 42.9914
-1.45205 5.64282 42.9854
-1.51014 5.63824 42.9201
-2.67456 5.74699 43.8043
-3.97216 5.90358 44.9202
-6.33571 6.19796 46.9519
21.5021 15.8208 113.663
7.48897 7.25698 53.5023
7.31479 7.24153 53.3191
7.1427 7.18618 53.0609
6.63265 7.10161 52.4477
6.13379 7.01871 51.846
5.97182 6.96578 51.6009
5.80831 6.9516 51.4281
5.73955 6.95182 51.4363
5.48789 6.88546 51.0161
5.41954 6.8856 51.0236
5.32769 6.87161 50.8461
4.87884 6.80676 50.4548
4.72674 6.75601 50.2214
4.65914 6.75596 50.227
4.57125 6.74266 50.0552
4.26839 6.67947 49.6613
4.00012 6.67883 49.6787
3.86579 6.67843 49.6864
3.79858 6.6782 49.69
3.35434 6.60252 49.1336
3.29426 6.56601 49.0742
3.21279 6.55362 48.9098
2.92662 6.49267 48.528
2.84729 6.48067 48.3674
2.63221 6.42136 47.9925
2.56088 6.41531 47.9146
2.49716 6.37435 47.7787
2.42044 6.36297 47.6237
2.14763 6.30494 47.261
1.94272 6.24832 46.9035
1.87889 6.24771 46.9033
1.81374 6.20308 46.699
1.75018 6.20244 46.6985
1.67752 6.19191 46.551
1.48334 6.14174 46.2763
1.41623 6.13626 46.2032
1.22125 6.08209 45.8614
1.15877 6.08135 45.8599
1.03601 6.03771 45.6636
0.97379 6.03693 45.6617
0.722546 5.98323 45.3251
0.655105 5.97371 45.1866
0.408752 5.92095 44.8564
0.291833 5.87882 44.668
0.230971 5.87793 44.6648
0.0509217 5.82724 44.3445
-0.00948993 5.8263 44.3409
-0.246483 5.77535 44.0211
-0.307798 5.77056 43.9539
-0.358428 5.73448 43.8386
-0.41934 5.72977 43.772
-0.649471 5.68362 43.5206
-0.936285 5.63333 43.2057
-0.995452 5.62879 43.1405
-1.17105 5.63249 43.2445
-1.22993 5.6279 43.1785
-1.27714 5.58926 43.0068
-1.33557 5.58814 43.001
-1.39399 5.58701 42.9951
-1.45238 5.58588 42.989
-2.42488 5.66346 43.5712
-6.63431 6.18175 47.2294
-6.69601 6.17978 47.2103
-6.75763 6.17782 47.191
7.48966 7.18712 53.5113
7.41906 7.18775 53.5239
7.21349 7.11632 53.0577
7.14333 7.11686 53.0696
6.97159 7.10195 52.8889
6.90149 7.10244 52.9001
6.70282 7.03263 52.4455
6.63317 7.03304 52.456
6.46598 6.99897 52.2417
6.39756 6.97979 52.215
6.30009 6.96515 52.0293
6.13423 6.95088 51.854
5.90331 6.89847 51.6173
5.80869 6.88428 51.4358
5.73992 6.88446 51.444
5.64619 6.87035 51.2634
5.41986 6.81876 51.031
5.32798 6.805 50.8535
5.25978 6.80508 50.8605
5.19153 6.80514 50.8674
5.10477 6.75401 50.6238
5.03677 6.75402 50.6303
4.96874 6.75402 50.6366
4.87907 6.7406 50.4618
4.65935 6.69007 50.2339
4.57144 6.67699 50.0621
4.50399 6.67689 50.0673
4.20152 6.61413 49.6725
4.13446 6.61395 49.6769
4.06737 6.61376 49.6811
4.00024 6.61355 49.6852
3.93309 6.61333 49.6891
3.79869 6.61285 49.6963
3.73144 6.61259 49.6997
3.6475 6.59984 49.5305
3.56415 6.58717 49.3624
3.50348 6.5506 49.3033
3.21282 6.48925 48.9158
3.06578 6.47676 48.7545
2.84727 6.41699 48.3732
2.76849 6.40528 48.2136
2.71019 6.36963 48.156
2.63217 6.35816 47.9982
2.56695 6.35767 47.9992
2.42037 6.30026 47.6292
2.35563 6.29973 47.6299
2.14754 6.24269 47.2664
2.078 6.23698 47.1907
2.01666 6.19713 47.0587
1.94762 6.19152 46.9837
1.87877 6.1859 46.9085
1.75005 6.1409 46.7037
1.67737 6.13056 46.5562
1.61399 6.12989 46.5554
1.47898 6.07606 46.2093
1.41606 6.07535 46.2082
1.28686 6.04803 46.0358
1.22106 6.02163 45.8664
1.15858 6.02088 45.8648
0.904876 5.96713 45.5258
0.65487 5.91409 45.1912
0.593292 5.91324 45.1886
0.53604 5.87171 45.0001
0.474723 5.87084 44.9973
0.291579 5.81986 44.6724
0.230713 5.81895 44.6692
0.165691 5.81009 44.5349
-0.00976531 5.76774 44.3452
-0.0736107 5.7591 44.2129
-0.133833 5.75814 44.2091
-0.185244 5.72192 44.0928
-0.246776 5.71719 44.0253
-0.420868 5.66831 43.7138
-0.48038 5.6673 43.7094
-0.53988 5.66628 43.7049
-0.769684 5.617 43.3927
-0.828719 5.61595 43.3877
-0.93661 5.57619 43.2096
-0.995786 5.57173 43.1443
-1.17156 5.57183 43.188
-1.39432 5.53006 42.9987
-1.45272 5.52893 42.9927
-1.51081 5.52451 42.9273
-2.42519 5.6054 43.5744
-2.68185 5.6459 43.8346
-3.44931 5.73064 44.4459
-3.97259 5.78266 44.9255
-4.43659 5.82925 45.2872
-6.33568 6.0698 46.9551
7.49035 7.11724 53.5203
7.14395 7.04752 53.0783
6.97218 7.03283 52.8975
6.88744 7.00572 52.7695
6.80304 6.97884 52.6427
6.6337 6.96445 52.4643
6.36982 6.89679 52.0278
6.30056 6.89708 52.0373
6.13466 6.88302 51.862
6.06548 6.88326 51.8709
5.80907 6.81693 51.4435
5.74029 6.81709 51.4517
5.64654 6.80321 51.271
5.57962 6.78437 51.2441
5.48855 6.75182 51.031
5.42018 6.75189 51.0384
5.35176 6.75195 51.0456
5.10504 6.68765 50.631
5.03704 6.68763 50.6375
4.96899 6.6876 50.6437
4.87931 6.67441 50.4689
4.81143 6.67436 50.4748
4.57163 6.6113 50.069
4.50418 6.61118 50.0742
4.41959 6.58009 49.8709
4.3549 6.56161 49.8435
4.20166 6.54891 49.6792
4.13459 6.5487 49.6835
4.00037 6.54825 49.6917
3.79879 6.54748 49.7027
3.73154 6.54719 49.7061
3.50355 6.48572 49.3095
3.35442 6.47317 49.1459
3.06579 6.41256 48.7605
2.99609 6.38862 48.6496
2.92662 6.36485 48.5397
2.63843 6.30033 48.0834
2.5669 6.29444 48.0049
2.4203 6.23753 47.6348
2.35555 6.23698 47.6354
2.28337 6.20888 47.4526
2.21723 6.18605 47.348
2.14744 6.18041 47.2719
2.01656 6.13512 47.0641
1.9475 6.12961 46.989
1.87864 6.12408 46.9138
1.67722 6.0692 46.5613
1.61384 6.06851 46.5606
1.54609 6.04173 46.3866
1.48302 6.01973 46.2864
1.41588 6.01443 46.2132
1.22087 5.96116 45.8713
1.15839 5.96039 45.8697
0.966692 5.90788 45.5327
0.904659 5.90707 45.5306
0.841015 5.88151 45.3649
0.783878 5.86444 45.3368
0.722106 5.8636 45.3344
0.654632 5.85445 45.1959
0.535802 5.81232 45.0047
0.474482 5.81144 45.0019
0.408239 5.80253 44.8655
0.230453 5.75997 44.6736
0.165415 5.75128 44.5393
0.104738 5.75035 44.5358
0.0503732 5.71012 44.3531
-0.0100434 5.70917 44.3495
-0.18553 5.66367 44.097
-0.247071 5.65903 44.0295
-0.308404 5.6544 43.9623
-0.480691 5.60953 43.7135
-0.541235 5.605 43.6471
-0.590847 5.5696 43.5333
-0.650091 5.56855 43.5286
-0.710963 5.56068 43.4015
-0.936938 5.51904 43.2135
-0.996122 5.51466 43.1482
-1.1719 5.51465 43.1918
-1.23059 5.51354 43.1861
-1.45305 5.47196 42.9963
-1.51088 5.46443 42.8719
-2.4255 5.54732 43.5777
-4.43676 5.76813 45.2896
-6.57247 6.05454 47.2515
-6.63423 6.0526 47.2325
-6.69591 6.05067 47.2133
-6.75753 6.04872 47.194
7.31712 7.01262 53.3071
7.14457 6.97816 53.087
6.8036 6.91001 52.6511
6.63422 6.89583 52.4727
6.30102 6.82898 52.0454
6.23169 6.82922 52.0548
6.1351 6.81514 51.87
6.06591 6.81534 51.8789
5.97164 6.78223 51.6597
5.90412 6.76328 51.6328
5.80945 6.74957 51.4513
5.74066 6.74969 51.4594
5.4205 6.685 51.0459
5.35207 6.68503 51.053
5.26036 6.67174 50.8753
4.96925 6.62116 50.6509
4.87954 6.60821 50.4761
4.81165 6.60812 50.4819
4.7274 6.55834 50.2422
4.65977 6.55821 50.2477
4.57182 6.54559 50.0759
4.2018 6.48366 49.6858
4.04951 6.47119 49.522
3.84871 6.47039 49.5334
3.73163 6.48178 49.7125
3.64764 6.46948 49.5433
3.35446 6.40847 49.1521
3.2727 6.39657 48.9868
3.21288 6.36044 48.9279
2.92661 6.30092 48.5455
2.78154 6.28908 48.3863
2.63207 6.23172 48.0096
2.56685 6.23119 48.0106
2.49327 6.20287 47.8246
2.42614 6.17988 47.7183
2.35547 6.17421 47.641
2.21714 6.12367 47.3535
2.14734 6.11812 47.2773
2.08303 6.1175 47.2774
1.94235 6.0629 46.9195
1.87851 6.06224 46.9191
1.80924 6.03527 46.7423
1.74512 6.01314 46.6407
1.67707 6.00782 46.5665
1.47865 5.95423 46.2195
1.41571 5.95349 46.2183
1.22068 5.90067 45.8762
1.15819 5.89988 45.8746
1.08862 5.8905 45.7325
1.03542 5.857 45.6781
0.966476 5.84782 45.5375
0.90444 5.84699 45.5354
0.71893 5.79971 45.2711
0.654392 5.7948 45.2006
0.407979 5.74329 44.87
0.346847 5.74238 44.867
0.291062 5.7019 44.6813
0.230191 5.70097 44.678
0.0500949 5.65154 44.3575
-0.0103241 5.65058 44.3538
-0.0742017 5.64229 44.2216
-0.247369 5.60084 44.0337
-0.308711 5.5963 43.9665
-0.364589 5.57622 43.8751
-0.420248 5.55622 43.7844
-0.481005 5.55175 43.7177
-0.650405 5.511 43.5326
-0.711293 5.5033 43.4056
-0.770344 5.50223 43.4007
-0.829383 5.50116 43.3956
-0.996033 5.46078 43.2121
-1.17223 5.45746 43.1956
-1.23103 5.45314 43.1299
-1.28965 5.44882 43.0642
-1.33657 5.41727 43.0121
-1.39499 5.41613 43.0061
-1.45339 5.41498 43
-1.51124 5.40762 42.8755
-1.74509 5.40913 42.9678
-2.42582 5.48923 43.581
-3.44985 5.61137 44.4517
-6.57243 5.98994 47.2531
-6.63418 5.98802 47.234
-6.69586 5.9861 47.2148
-6.75748 5.98417 47.1955
7.1452 6.90876 53.0958
6.97335 6.8945 52.9148
6.63475 6.82718 52.481
6.46746 6.7939 52.2663
6.30149 6.76086 52.0535
6.23214 6.76107 52.0628
5.90452 6.69565 51.6406
5.74103 6.68227 51.4671
5.42082 6.61809 51.0533
5.35238 6.61809 51.0604
5.26064 6.60504 50.8827
5.19437 6.58633 50.8552
5.1261 6.58628 50.8618
5.03756 6.55479 50.6519
4.9695 6.5547 50.658
4.87977 6.54198 50.4832
4.65998 6.49225 50.2546
4.50454 6.47968 50.0879
4.43703 6.47949 50.0928
4.20194 6.41839 49.6925
4.04962 6.40613 49.5286
3.98271 6.40585 49.5325
3.91577 6.40556 49.5363
3.85172 6.38718 49.5081
3.7818 6.40494 49.5433
3.64771 6.40427 49.5497
3.58063 6.40391 49.5526
3.50367 6.3559 49.322
3.21291 6.296 48.934
3.06579 6.28411 48.7725
2.7815 6.22532 48.3921
2.7101 6.17931 48.1732
2.64467 6.17876 48.1742
2.56679 6.16792 48.0163
2.43198 6.12198 47.8018
2.35539 6.11143 47.6466
2.21153 6.05645 47.2827
2.14723 6.05581 47.2828
2.07767 6.05039 47.207
2.01634 6.01106 47.0748
1.94223 6.00106 46.9248
1.74498 5.95165 46.6459
1.67692 5.94643 46.5718
1.47847 5.89329 46.2246
1.41553 5.89253 46.2234
1.34902 5.86664 46.0522
1.29073 5.8494 46.024
1.22048 5.84016 45.8812
1.15799 5.83936 45.8795
0.966257 5.78774 45.5423
0.904218 5.7869 45.5402
0.715738 5.73601 45.2078
0.654149 5.73513 45.2053
0.596645 5.6944 45.0166
0.535317 5.6935 45.0139
0.229925 5.64195 44.6825
0.164854 5.63363 44.5482
-0.0106076 5.59197 44.3582
-0.0745013 5.58386 44.2259
-0.13473 5.58288 44.222
-0.1877 5.54365 44.042
-0.24767 5.54265 44.038
-0.421804 5.49499 43.7262
-0.481322 5.49396 43.7218
-0.541883 5.48959 43.6553
-0.711625 5.4459 43.4096
-0.770679 5.44483 43.4047
-0.87882 5.40579 43.2265
-0.937601 5.4047 43.2213
-0.996803 5.40048 43.156
-1.17257 5.40025 43.1994
-1.23127 5.39912 43.1937
-1.45373 5.35798 43.0037
-1.51159 5.35079 42.8792
-3.45012 5.55172 44.4546
-4.43712 5.64585 45.2945
-6.63413 5.92344 47.2355
-6.69581 5.92153 47.2163
-6.75743 5.91961 47.197
7.42177 6.90791 53.5598
7.14582 6.83935 53.1046
6.97394 6.8253 52.9235
6.80472 6.77226 52.668
6.63527 6.75852 52.4895
6.37125 6.69254 52.0522
6.30195 6.69272 52.0617
6.2326 6.69289 52.0709
6.13596 6.6793 51.8861
5.7414 6.61482 51.4748
5.67254 6.61487 51.4826
5.58064 6.58288 51.2669
5.51377 6.56405 51.2395
5.42113 6.55116 51.0608
5.35269 6.55113 51.0679
5.03782 6.48833 50.6591
4.96975 6.48821 50.6652
4.81209 6.47559 50.4961
4.50471 6.4139 50.0948
4.35282 6.38339 49.8961
4.20207 6.35311 49.6992
4.13499 6.35282 49.7034
3.43691 6.29054 49.3308
3.35453 6.27901 49.1645
3.06579 6.21985 48.7786
2.9266 6.17299 48.5573
2.64463 6.11526 48.18
2.56673 6.10463 48.0221
2.50148 6.10405 48.0228
2.35531 6.04862 47.6522
2.27923 6.03834 47.4979
2.21695 5.99884 47.3645
2.14712 5.99349 47.2883
1.9421 5.9392 46.9302
1.87825 5.9385 46.9298
1.67677 5.88501 46.577
1.60451 5.87553 46.4303
1.5413 5.87478 46.4293
1.4783 5.83233 46.2297
1.41535 5.83156 46.2284
1.22028 5.77964 45.8862
1.15779 5.77882 45.8845
0.903993 5.72679 45.545
0.835663 5.71802 45.4051
0.715495 5.67633 45.2125
0.653903 5.67544 45.21
0.407451 5.62478 44.8792
0.16457 5.57477 44.5527
0.103885 5.57381 44.5491
0.0495303 5.53434 44.3662
-0.0108937 5.53335 44.3625
-0.247973 5.48443 44.0422
-0.309333 5.48006 43.975
-0.542212 5.43186 43.6595
-0.6026 5.42757 43.593
-0.71196 5.38849 43.4136
-0.771015 5.38741 43.4087
-0.997147 5.34336 43.1599
-1.17291 5.34303 43.2033
-1.23173 5.33887 43.1376
-1.29036 5.33472 43.0719
-1.87606 5.32898 43.1263
-6.57234 5.86074 47.2562
-6.63408 5.85885 47.2371
-6.69576 5.85695 47.2179
-6.75737 5.85504 47.1985
7.31909 6.80355 53.3339
7.14644 6.7699 53.1134
6.80528 6.70336 52.6765
6.63579 6.68982 52.4979
6.30241 6.62455 52.0698
6.23305 6.62469 52.079
6.13639 6.61135 51.8941
6.06854 6.59238 51.8667
5.97427 6.56026 51.6479
5.90531 6.56031 51.6563
5.83629 6.56035 51.6644
5.74176 6.54735 51.4826
5.6729 6.54737 51.4904
5.5141 6.49685 51.247
5.42144 6.4842 51.0684
5.35299 6.48414 51.0754
5.2845 6.48407 51.0822
5.19292 6.47148 50.9042
4.97 6.42171 50.6724
4.81231 6.40928 50.5033
4.73621 6.38468 50.3854
4.66039 6.36026 50.2685
4.50489 6.3481 50.1017
4.20221 6.2878 49.7059
4.04984 6.27593 49.5419
3.77082 6.22762 49.3226
3.35456 6.21425 49.1708
3.28792 6.21379 49.173
3.20963 6.18481 48.9769
3.14659 6.16658 48.9481
3.06579 6.15558 48.7846
2.78144 6.09774 48.4039
2.71571 6.09718 48.405
2.56667 6.04133 48.0278
2.4893 6.03097 47.8708
2.43185 5.99594 47.813
2.34946 5.98108 47.5805
2.21685 5.93641 47.37
2.14701 5.93114 47.2938
2.07216 5.92134 47.1422
1.94197 5.87732 46.9356
1.87811 5.87661 46.9351
1.80881 5.85037 46.7582
1.74 5.82433 46.583
1.67661 5.82358 46.5822
1.47812 5.77136 46.2348
1.41517 5.77057 46.2335
1.34424 5.76152 46.0892
1.22008 5.71909 45.8912
1.15758 5.71827 45.8895
1.08796 5.70946 45.7474
1.03023 5.69238 45.719
0.965811 5.66753 45.552
0.903765 5.66666 45.5499
0.71525 5.61664 45.2173
0.653655 5.61574 45.2147
0.407182 5.56549 44.8838
0.290265 5.52483 44.6948
0.229386 5.52387 44.6914
0.164283 5.51591 44.5571
-0.0111824 5.47472 44.3669
-0.0751083 5.46696 44.2346
-0.135342 5.46596 44.2307
-0.309648 5.42191 43.9792
-0.370834 5.41762 43.9119
-0.419918 5.38571 43.8591
-0.481964 5.37832 43.7301
-0.542543 5.37412 43.6636
-0.712297 5.33106 43.4177
-0.771354 5.32997 43.4127
-1.23208 5.28172 43.1414
-1.29072 5.27764 43.0757
-1.34923 5.27649 43.0697
-1.40771 5.27534 43.0636
-1.51231 5.2371 42.8867
-1.75216 5.25315 43.0016
-1.87642 5.27168 43.1299
-3.45067 5.43239 44.4604
-6.57229 5.79613 47.2578
-6.63403 5.79425 47.2386
-6.69571 5.79236 47.2194
7.24969 6.7144 53.3157
7.14706 6.70043 53.1222
6.97511 6.68682 52.941
6.63632 6.6211 52.5063
6.46894 6.58861 52.2912
6.40048 6.56952 52.2638
6.30288 6.55636 52.078
6.2335 6.55646 52.0871
5.90571 6.49261 51.6641
5.74212 6.47986 51.4904
5.67325 6.47984 51.4981
5.3533 6.41713 51.0829
5.28479 6.41703 51.0896
5.19319 6.40468 50.9117
5.12691 6.38599 50.8837
5.03833 6.35535 50.6736
4.97025 6.35518 50.6796
4.90212 6.35499 50.6855
4.66059 6.29423 50.2756
4.50506 6.28227 50.1087
4.20234 6.22247 49.7127
4.04994 6.2108 49.5486
3.98586 6.19253 49.5204
3.90426 6.16352 49.3222
3.83759 6.16313 49.3258
3.7709 6.16273 49.3291
3.70418 6.16232 49.3323
3.63743 6.16189 49.3353
3.43701 6.16055 49.3434
3.35459 6.14947 49.177
3.1466 6.10206 48.9542
3.06578 6.09128 48.7907
2.84711 6.0345 48.4086
2.7814 6.03392 48.4098
2.7027 6.02349 48.25
2.64454 5.98821 48.1915
2.56661 5.978 48.0336
2.41991 5.92361 47.6631
2.34936 5.91835 47.5862
2.1469 5.86878 47.2993
2.07203 5.85918 47.1477
2.016 5.82482 47.0909
1.94183 5.81543 46.941
1.87797 5.8147 46.9405
1.73985 5.7629 46.5883
1.67645 5.76213 46.5875
1.60416 5.75304 46.4408
1.47794 5.71036 46.24
1.41499 5.70956 46.2387
1.34403 5.70071 46.0943
1.28572 5.68354 46.0659
1.21987 5.65853 45.8962
1.15737 5.65769 45.8944
0.965584 5.6074 45.5569
0.903535 5.60652 45.5547
0.653404 5.55602 45.2194
0.586291 5.54786 45.0817
0.529727 5.53103 45.0533
0.468059 5.50714 44.8915
0.406912 5.5062 44.8884
0.163993 5.45702 44.5616
0.103303 5.45603 44.558
-0.0754158 5.40849 44.239
-0.135652 5.40747 44.235
-0.188611 5.369 44.0549
-0.248587 5.36796 44.0507
-0.309965 5.36375 43.9835
-0.482288 5.32048 43.7343
-0.542876 5.31636 43.6678
-0.603282 5.31224 43.6012
-0.771696 5.27253 43.4168
-0.944203 5.2482 43.2565
-0.997387 5.23195 43.2278
-1.1736 5.22854 43.211
-1.23244 5.22455 43.1453
-1.29109 5.22056 43.0795
-1.51267 5.18024 42.8904
-3.71853 5.41229 44.7267
-4.45362 5.4956 45.3529
-5.05785 5.54349 45.8229
-5.82759 5.63109 46.4555
-6.57224 5.73152 47.2593
-6.63398 5.72965 47.2402
-6.69565 5.72777 47.2209
-6.75725 5.72589 47.2015
37.4232 30.1778 230.423
7.42381 6.69775 53.5871
7.14769 6.63093 53.1311
7.07737 6.63119 53.1423
6.97569 6.61754 52.9497
6.90552 6.61777 52.9605
6.80639 6.56546 52.6936
6.63684 6.55236 52.5148
6.30334 6.48814 52.0862
6.23395 6.48821 52.0953
6.13724 6.47536 51.9104
5.74249 6.41234 51.4982
5.6736 6.41229 51.5059
5.57992 6.39985 51.325
5.51298 6.38108 51.2972
5.4461 6.36228 51.2693
5.3536 6.3501 51.0904
5.28508 6.34997 51.0971
5.03859 6.28882 50.6809
4.97049 6.28862 50.6869
4.81275 6.27661 50.5176
4.57274 6.21671 50.1107
4.50524 6.21642 50.1157
4.35588 6.16862 49.8841
4.20247 6.15711 49.7194
3.90435 6.09866 49.3288
3.83768 6.09824 49.3323
3.77098 6.09782 49.3356
3.63749 6.09693 49.3417
3.50389 6.09601 49.3472
3.43706 6.09553 49.3496
3.28796 6.08417 49.1855
3.06577 6.02696 48.7968
2.91951 6.01591 48.6357
2.56654 5.91466 48.0394
2.50128 5.91402 48.04
2.34927 5.85561 47.5919
2.27891 5.85044 47.5149
2.21665 5.81147 47.3811
2.14679 5.80639 47.3049
1.9417 5.75352 46.9464
1.86801 5.74438 46.7973
1.67629 5.70067 46.5927
1.60397 5.69177 46.4461
1.54076 5.69098 46.445
1.47775 5.64935 46.2451
1.4148 5.64853 46.2438
1.21967 5.59796 45.9012
1.15716 5.5971 45.8994
0.903302 5.54636 45.5596
0.834922 5.53816 45.4197
0.773058 5.53725 45.4172
0.714751 5.49722 45.2268
0.65315 5.49629 45.2241
0.467788 5.44784 44.8961
0.406638 5.44688 44.893
0.163701 5.39812 44.5661
0.0384816 5.38956 44.4289
-0.011768 5.3574 44.3756
-0.0757259 5.35 44.2434
-0.310286 5.30558 43.9877
-0.371489 5.30145 43.9204
-0.544294 5.25563 43.6101
-0.603627 5.25455 43.6054
-0.662946 5.25346 43.6005
-0.71298 5.21617 43.4258
-0.772041 5.21506 43.4208
-1.23279 5.16737 43.1491
-1.29145 5.16346 43.0834
-1.34996 5.16229 43.0773
-1.87714 5.15703 43.1371
-3.71879 5.35214 44.7296
-6.57219 5.66689 47.2609
7.32105 6.59424 53.361
7.25098 6.57487 53.3335
7.14831 6.5614 53.1399
7.07798 6.56162 53.1512
6.80694 6.49647 52.7022
6.73701 6.49661 52.7125
6.63736 6.48359 52.5233
6.56756 6.48369 52.5332
6.3038 6.4199 52.0944
6.2344 6.41993 52.1035
6.13767 6.40733 51.9185
6.06842 6.40734 51.9271
5.99911 6.40733 51.9355
5.90649 6.35712 51.6799
5.83745 6.35707 51.6879
5.74285 6.3448 51.5061
5.67395 6.34472 51.5137
5.3539 6.28304 51.098
5.28537 6.28288 51.1046
5.19373 6.271 50.9266
5.12537 6.27082 50.9329
4.81296 6.21024 50.5249
4.73684 6.18608 50.4067
4.66099 6.16211 50.2896
4.50541 6.15056 50.1227
4.43786 6.15023 50.1274
4.2026 6.09174 49.7262
4.05014 6.08048 49.562
3.77105 6.03289 49.3421
3.68757 6.02229 49.1766
3.62104 6.02182 49.1795
3.37023 6.02997 49.3582
3.28798 6.01932 49.1918
3.22129 6.01879 49.1937
3.14662 5.97297 48.9664
2.99956 5.96206 48.8045
2.84704 5.90684 48.4205
2.78131 5.90623 48.4217
2.49512 5.8461 47.967
2.34917 5.79284 47.5976
2.21099 5.74471 47.3104
2.14667 5.74399 47.3104
2.07176 5.7348 47.1588
1.94156 5.69158 46.9518
1.86785 5.68265 46.8028
1.80418 5.68188 46.8021
1.73953 5.63997 46.5989
1.67612 5.63918 46.598
1.47757 5.58832 46.2503
1.4105 5.58368 46.1775
1.34362 5.57903 46.1046
1.28085 5.57818 46.103
1.08727 5.52826 45.7623
1.02495 5.52738 45.7603
0.965123 5.48709 45.5667
0.903067 5.48618 45.5645
0.714498 5.43748 45.2316
0.652894 5.43654 45.2289
0.585747 5.42874 45.0912
0.406362 5.38755 44.8976
0.340438 5.37997 44.762
0.279476 5.37898 44.7587
0.224106 5.34021 44.5742
0.163406 5.33921 44.5706
-0.0760387 5.2915 44.2478
-0.13628 5.29046 44.2438
-0.371821 5.24335 43.9246
-0.432826 5.23932 43.8576
-0.482946 5.20476 43.7426
-0.543551 5.2008 43.6761
-0.603974 5.19684 43.6096
-0.772388 5.15759 43.4249
-0.891666 5.14983 43.2932
-0.950518 5.1487 43.2879
-1.29182 5.10634 43.0872
-1.35033 5.10517 43.0812
-1.51928 5.08141 42.9207
-1.70096 5.09805 43.0425
-1.75932 5.09685 43.0356
-1.8775 5.09969 43.1407
-2.18691 5.1346 43.3901
-3.71906 5.29199 44.7324
-5.05813 5.41926 45.8274
7.25162 6.50506 53.3425
7.14893 6.49185 53.1489
7.07859 6.49204 53.16
6.97686 6.4789 52.9674
6.73755 6.42756 52.7211
6.63787 6.41479 52.5319
6.56807 6.41486 52.5417
6.47041 6.38309 52.3163
6.40193 6.36405 52.2886
6.30426 6.35163 52.1027
6.23485 6.35163 52.1117
6.13809 6.33928 51.9267
5.90689 6.28935 51.6879
5.83783 6.28926 51.6958
5.74321 6.27723 51.514
5.67431 6.27712 51.5215
5.60535 6.277 51.5289
5.3542 6.21596 51.1055
5.28566 6.21577 51.1122
5.12771 6.1855 50.9059
5.06149 6.16684 50.8774
4.97098 6.15545 50.7015
4.66119 6.09601 50.2967
4.50558 6.08467 50.1297
4.20272 6.02634 49.733
4.05024 6.01528 49.5688
3.98329 6.01485 49.5725
3.90452 5.96887 49.342
3.83784 5.9684 49.3454
3.77113 5.96793 49.3486
3.68762 5.95756 49.1831
3.62108 5.95707 49.186
3.55452 5.95657 49.1887
3.4213 5.95553 49.1937
3.28799 5.95446 49.198
3.06575 5.89827 48.8091
2.99954 5.89768 48.8106
2.78127 5.84236 48.4276
2.71552 5.84171 48.4286
2.64068 5.8147 48.2388
2.57266 5.79236 48.1303
2.50113 5.78723 48.0516
2.41965 5.73503 47.6802
2.34906 5.73006 47.6033
2.14655 5.68157 47.316
2.07162 5.67258 47.1643
2.01564 5.63842 47.1072
1.94141 5.62963 46.9573
1.73936 5.57849 46.6042
1.67595 5.57768 46.6033
1.60361 5.56918 46.4566
1.54038 5.56835 46.4555
1.40618 5.51901 46.1112
1.34341 5.51816 46.1097
1.28064 5.5173 46.1081
1.21924 5.47675 45.9113
1.14936 5.46871 45.7693
0.964888 5.42691 45.5716
0.902829 5.42599 45.5693
0.834415 5.41816 45.4295
0.772544 5.41723 45.4269
0.652634 5.37677 45.2336
0.585472 5.36916 45.0959
0.524054 5.3682 45.093
0.467238 5.32919 44.9054
0.406083 5.3282 44.9023
0.223811 5.28129 44.5787
0.163108 5.28028 44.5752
-0.0763541 5.23298 44.2522
-0.136597 5.23193 44.2481
-0.199989 5.22493 44.1165
-0.249529 5.19314 44.0636
-0.312366 5.1863 43.9334
-0.372155 5.18522 43.9289
-0.543892 5.143 43.6803
-0.604324 5.13913 43.6137
-0.663648 5.13802 43.6088
-0.892032 5.0925 43.2973
-0.950886 5.09137 43.2919
-0.999383 5.055 43.1198
-1.18614 5.08678 43.2693
-1.23352 5.05296 43.1569
-1.29219 5.04921 43.0911
-1.3507 5.04804 43.085
-2.06141 5.05889 43.2651
-2.18727 5.0768 43.3936
-3.71932 5.23182 44.7353
-6.58165 5.55541 47.2914
-6.6434 5.55357 47.2722
-6.70509 5.55173 47.2528
-6.77634 5.56765 47.2606
7.14954 6.42227 53.1578
7.0792 6.42242 53.1689
6.97744 6.40954 52.9762
6.90796 6.39033 52.9483
6.80805 6.35842 52.7195
6.73809 6.35848 52.7297
6.63839 6.34596 52.5404
6.40241 6.29551 52.2969
6.23529 6.2833 52.1199
6.16582 6.28326 52.1286
6.06925 6.27114 51.9434
5.90728 6.22155 51.6958
5.83821 6.22143 51.7038
5.74357 6.20964 51.5219
5.67465 6.2095 51.5294
5.60569 6.20935 51.5367
5.51395 6.17907 51.3203
5.44706 6.16032 51.2921
5.35449 6.14886 51.1131
5.28595 6.14863 51.1197
4.97122 6.08882 50.7088
4.81339 6.07743 50.5394
4.50574 6.01875 50.1367
4.35372 5.98974 49.9374
4.20285 5.96093 49.7398
3.90461 5.90394 49.3486
3.83792 5.90345 49.352
3.7712 5.90296 49.3552
3.68767 5.89281 49.1896
3.62113 5.89229 49.1925
3.55455 5.89177 49.1952
3.48795 5.89124 49.1977
3.28801 5.88957 49.2043
3.22131 5.889 49.2062
2.99952 5.83328 48.8167
2.93328 5.83266 48.818
2.78122 5.77846 48.4336
2.56633 5.72451 48.0569
2.50105 5.72381 48.0574
2.41955 5.67213 47.6859
2.34896 5.66725 47.609
2.28249 5.64554 47.503
2.21633 5.62393 47.3979
2.14643 5.61913 47.3216
2.00513 5.56845 46.9632
1.94127 5.56766 46.9627
1.86753 5.55913 46.8137
1.80385 5.55833 46.813
1.66664 5.50868 46.463
1.60342 5.50785 46.462
1.47719 5.46621 46.2607
1.4101 5.46174 46.1878
1.21903 5.41612 45.9164
1.14913 5.40828 45.7744
1.0868 5.40737 45.7724
1.02448 5.40646 45.7703
0.902588 5.36578 45.5743
0.834157 5.35814 45.4344
0.713983 5.31795 45.2412
0.652373 5.31698 45.2384
0.46696 5.26983 44.9101
0.405801 5.26884 44.9069
0.339845 5.26162 44.7713
0.0980469 5.21431 44.4461
0.0375328 5.21328 44.4424
-0.0178202 5.19677 44.4137
-0.0766721 5.17444 44.2566
-0.136918 5.17339 44.2525
-0.312701 5.12817 43.9377
-0.372492 5.12709 43.9332
-0.433515 5.12323 43.8661
-0.604677 5.08139 43.6179
-0.664002 5.08028 43.613
-0.724969 5.07383 43.4852
-0.773089 5.04259 43.4331
-1.29256 4.99207 43.095
-1.35107 4.99089 43.0889
-1.70171 4.98371 43.0499
-2.18764 5.01898 43.3972
7.46073 6.39098 53.7514
7.35606 6.39772 53.5954
7.25291 6.36536 53.3604
7.15016 6.35267 53.1668
6.8086 6.28935 52.7282
6.73863 6.28938 52.7383
6.63891 6.27711 52.549
6.56908 6.27712 52.5587
6.23574 6.21495 52.1281
6.16626 6.21487 52.1368
6.07106 6.18422 51.915
6.00178 6.18411 51.9233
5.90767 6.15372 51.7038
5.83859 6.15357 51.7117
5.74392 6.14203 51.5298
5.51608 6.09318 51.2928
5.44738 6.09295 51.2997
5.35479 6.08173 51.1208
5.28624 6.08148 51.1273
4.97146 6.02218 50.7161
4.81359 6.01099 50.5466
4.73745 5.98729 50.4283
4.66158 5.96376 50.3109
4.50591 5.95282 50.1438
4.20297 5.89549 49.7467
4.05044 5.88482 49.5824
3.77127 5.83796 49.3617
3.68772 5.82803 49.1962
3.62117 5.8275 49.199
3.55459 5.82695 49.2016
3.47523 5.79962 49.0057
3.41212 5.7816 48.977
3.28802 5.82467 49.2107
3.22472 5.8065 49.181
3.15064 5.80123 49.099
3.08021 5.77856 48.9865
2.9995 5.76887 48.8228
2.93325 5.76822 48.8241
2.78117 5.71454 48.4396
2.71541 5.71386 48.4405
2.63682 5.7045 48.2805
2.4964 5.61809 47.8468
2.41946 5.60921 47.6917
2.35466 5.60847 47.692
2.21064 5.55745 47.3273
2.14631 5.55668 47.3272
2.07134 5.54809 47.1755
1.86737 5.49734 46.8191
1.80368 5.49652 46.8184
1.73903 5.45546 46.615
1.67103 5.45099 46.5412
1.47699 5.40513 46.2659
1.40989 5.40075 46.193
1.34298 5.39637 46.1201
1.14889 5.34782 45.7795
1.08656 5.3469 45.7774
1.02189 5.32336 45.6099
0.96441 5.30649 45.5815
0.895773 5.29905 45.4417
0.713722 5.25816 45.246
0.652108 5.25718 45.2432
0.584912 5.24994 45.1055
0.339544 5.20242 44.776
0.278574 5.20141 44.7726
0.223213 5.1634 44.5878
0.162505 5.16237 44.5842
-0.0769927 5.11589 44.2611
-0.137241 5.11483 44.257
-0.372832 5.06893 43.9375
-0.433864 5.06516 43.8704
-0.494712 5.06138 43.8032
-0.544582 5.02735 43.6887
-0.605032 5.02364 43.6221
-0.892773 4.9778 43.3054
-0.95163 4.97665 43.3
-1.35145 4.93373 43.0927
-1.52634 4.92539 42.955
-1.7021 4.92651 43.0536
-2.188 4.96116 43.4007
-4.51516 5.18769 45.352
-5.05854 5.23286 45.8341
-5.63065 5.31322 46.3732
-6.65296 5.44191 47.3029
-6.71466 5.4401 47.2834
-6.77629 5.43828 47.2638
37.6578 28.397 232.056
7.25355 6.29546 53.3694
7.15078 6.28303 53.1758
7.08041 6.2831 53.1867
6.56958 6.20821 52.5673
6.40337 6.15835 52.3136
6.33373 6.15826 52.3226
6.23618 6.14657 52.1364
6.16669 6.14646 52.145
5.90805 6.08587 51.7119
5.83897 6.08568 51.7197
5.74428 6.07439 51.5377
5.67535 6.07418 51.5451
5.35508 6.01457 51.1284
5.28653 6.0143 51.1349
5.1285 5.9848 50.9283
5.03983 5.95585 50.7177
4.97169 5.95551 50.7235
4.90352 5.95516 50.7291
4.66177 5.89759 50.3181
4.50607 5.88686 50.1509
4.43849 5.88643 50.1554
4.20309 5.83003 49.7536
4.05053 5.81956 49.5892
3.98356 5.81907 49.5928
3.90477 5.77402 49.3619
3.83807 5.77349 49.3652
3.77133 5.77294 49.3683
3.3458 5.71643 48.9855
3.14663 5.71455 48.9911
3.0657 5.70508 48.8276
2.99947 5.70443 48.829
2.93322 5.70376 48.8302
2.71535 5.64991 48.4465
2.64957 5.6492 48.4471
2.57116 5.64005 48.2871
2.50556 5.63933 48.2874
2.41936 5.54627 47.6975
2.34874 5.54159 47.6205
2.13533 5.48661 47.1814
2.07119 5.48582 47.1811
2.00485 5.44449 46.9742
1.94097 5.44367 46.9737
1.67085 5.38954 46.5465
1.60303 5.38515 46.4726
1.53979 5.38428 46.4714
1.40555 5.33635 46.1269
1.34277 5.33545 46.1253
1.27218 5.32781 45.9817
1.21859 5.29481 45.9266
1.14865 5.28735 45.7845
0.895514 5.239 45.4467
0.833634 5.23804 45.4442
0.584629 5.19031 45.1103
0.523202 5.18931 45.1072
0.466394 5.15108 44.9195
0.40523 5.15006 44.9163
0.162199 5.10339 44.5888
0.0974064 5.09673 44.4553
0.0368873 5.09568 44.4514
-0.201005 5.04978 44.1298
-0.261062 5.0487 44.1254
-0.313378 5.01187 43.9463
-0.373174 5.01077 43.9418
-0.432958 5.00966 43.9372
-0.605389 4.96588 43.6263
-0.664718 4.96475 43.6213
-0.952006 4.91927 43.3041
-1.01085 4.91812 43.2985
-1.18728 4.91461 43.2811
-1.24617 4.91106 43.215
-1.29332 4.87775 43.1028
-1.35183 4.87655 43.0966
-2.06881 4.90112 43.2991
-2.18837 4.90332 43.4042
-4.45489 5.12791 45.3682
-5.63074 5.25013 46.3753
-6.59117 5.37899 47.3239
-6.65294 5.37719 47.3045
-6.71464 5.37539 47.285
-6.77627 5.37358 47.2654
7.18361 6.22559 53.3897
7.08101 6.21341 53.1957
7.01056 6.21343 53.2064
6.90968 6.18214 52.9746
6.84023 6.16294 52.9461
6.73971 6.1511 52.7556
6.66966 6.15105 52.7654
6.40385 6.08974 52.3219
6.33419 6.08961 52.3309
6.23663 6.07817 52.1447
6.16712 6.07802 52.1533
6.07048 6.06665 51.9681
5.83935 6.01778 51.7277
5.7702 6.01755 51.7352
5.67569 6.00649 51.5531
5.6067 6.00624 51.5602
5.51673 5.95843 51.3082
5.44801 5.95815 51.315
5.35538 5.9474 51.1361
5.28681 5.94709 51.1425
5.04007 5.88918 50.7252
4.97193 5.88882 50.7309
4.81401 5.87805 50.5613
4.50623 5.82088 50.158
4.35414 5.79261 49.9583
4.20321 5.76454 49.7605
3.83814 5.70847 49.3718
3.7714 5.70791 49.3749
3.62125 5.69784 49.2121
3.55466 5.69725 49.2147
3.13189 5.64131 48.8323
3.06568 5.64064 48.8338
2.91926 5.63078 48.6725
2.85684 5.61286 48.643
2.78106 5.58665 48.4517
2.71529 5.58594 48.4524
2.6495 5.58521 48.4531
2.41926 5.48332 47.7033
2.34863 5.47872 47.6263
2.2782 5.47412 47.5492
2.21039 5.43251 47.3386
2.14062 5.42802 47.2628
2.0047 5.38248 46.9798
1.94082 5.38165 46.9792
1.86703 5.37371 46.8302
1.80333 5.37286 46.8293
1.66607 5.32465 46.4791
1.60284 5.32377 46.478
1.53525 5.3195 46.4044
1.4766 5.28291 46.2764
1.40533 5.27542 46.1321
1.34255 5.27451 46.1305
1.14841 5.22686 45.7897
1.08608 5.22591 45.7876
0.895251 5.17894 45.4517
0.833368 5.17797 45.4491
0.713191 5.13853 45.2557
0.645774 5.13166 45.118
0.584343 5.13066 45.1151
0.404941 5.09065 44.921
0.338936 5.08398 44.7854
0.27796 5.08294 44.7819
0.0970822 5.03791 44.4598
0.0365606 5.03685 44.456
-0.0239536 5.03578 44.452
-0.0776417 4.99874 44.27
-0.137894 4.99766 44.2658
-0.373518 4.95258 43.9462
-0.434568 4.94897 43.879
-0.495434 4.94536 43.8118
-0.66508 4.90696 43.6255
-0.726093 4.90103 43.4978
-0.785228 4.89989 43.4926
-0.833217 4.86883 43.4401
-0.952384 4.86188 43.3081
-1.35221 4.81936 43.1005
-1.52714 4.81134 42.9627
-1.58541 4.81013 42.9562
-1.70287 4.81209 43.0611
-2.18873 4.84547 43.4077
-3.39438 4.96673 44.3914
-4.51558 5.06508 45.3571
-5.07577 5.14193 45.8908
-5.63083 5.18704 46.3773
-6.65292 5.31246 47.3061
-6.71461 5.31067 47.2866
-6.77624 5.30888 47.267
7.35806 6.18703 53.6229
7.18424 6.15561 53.3987
7.08162 6.14368 53.2047
6.84079 6.0935 52.9548
6.74025 6.08192 52.7643
6.67018 6.08183 52.7741
6.57059 6.07031 52.5845
6.50067 6.07019 52.5938
6.16755 6.00956 52.1616
6.00299 5.97959 51.9476
5.93515 5.96073 51.9188
5.83972 5.94984 51.7357
5.77057 5.94959 51.7432
5.67603 5.93877 51.561
5.51705 5.89102 51.316
5.44832 5.89071 51.3228
5.35567 5.8802 51.1438
5.28709 5.87986 51.1502
4.97216 5.8221 50.7383
4.81656 5.79355 50.5344
4.72748 5.78355 50.361
4.66214 5.7652 50.3324
4.50639 5.75487 50.1651
4.20333 5.69904 49.7674
4.05071 5.68898 49.6029
3.77146 5.64284 49.3815
3.62128 5.63298 49.2186
3.55469 5.63237 49.2212
3.47208 5.62315 49.0563
3.40892 5.6052 49.0273
3.34583 5.58722 48.9982
3.13187 5.57687 48.8385
3.06565 5.57619 48.84
2.78101 5.52268 48.4577
2.71523 5.52194 48.4585
2.57099 5.51247 48.299
2.34852 5.41584 47.6321
2.21026 5.37001 47.3443
2.14048 5.36562 47.2684
2.0709 5.36122 47.1924
1.86685 5.31187 46.8357
1.79354 5.30417 46.6874
1.73851 5.27078 46.6311
1.66588 5.26326 46.4845
1.60264 5.26237 46.4834
1.40511 5.21448 46.1374
1.34232 5.21355 46.1357
1.27171 5.2063 45.9922
1.14817 5.16635 45.7948
1.08583 5.16539 45.7927
1.01652 5.15834 45.6513
0.963674 5.12574 45.5964
0.894987 5.11886 45.4566
0.8331 5.11788 45.4541
0.645488 5.07201 45.1229
0.584054 5.07099 45.1199
0.338627 5.02473 44.7901
0.277649 5.02369 44.7865
0.217271 5.00184 44.6266
0.161581 4.98538 44.598
0.0967554 4.97908 44.4644
0.0362314 4.97801 44.4605
-0.138225 4.93905 44.2703
-0.201695 4.93293 44.1386
-0.261756 4.93183 44.1342
-0.434924 4.89086 43.8833
-0.495799 4.88733 43.8161
-0.606112 4.8503 43.6348
-0.665445 4.84916 43.6297
-0.726473 4.8434 43.502
-0.952764 4.80447 43.3122
-1.01161 4.8033 43.3066
-1.18805 4.79976 43.2891
-1.24683 4.79857 43.2831
-1.52754 4.7543 42.9666
-1.58581 4.75308 42.96
-1.70326 4.75485 43.0649
-2.1891 4.7876 43.4113
-4.51579 5.00376 45.3596
-5.63092 5.12393 46.3794
-6.59113 5.2495 47.3272
-6.6529 5.24772 47.3078
-6.71459 5.24595 47.2882
-6.77621 5.24417 47.2686
7.25548 6.08563 53.3967
7.18487 6.0856 53.4077
7.08222 6.07393 53.2137
7.01174 6.07388 53.2243
6.74079 6.01271 52.773
6.67071 6.01259 52.7827
6.57109 6.00132 52.5931
6.50116 6.00117 52.6024
6.4048 5.95242 52.3388
6.33512 5.95223 52.3477
6.26539 5.95203 52.3563
6.16798 5.94107 52.1699
5.84009 5.88189 51.7437
5.77093 5.8816 51.7512
5.67638 5.87102 51.569
5.35596 5.81297 51.1515
5.28737 5.81261 51.1578
5.1314 5.76576 50.916
5.04055 5.75578 50.7401
4.97239 5.75536 50.7457
4.90419 5.75493 50.7512
4.66233 5.69897 50.3396
4.50654 5.68884 50.1722
4.20344 5.63351 49.7743
4.05079 5.62365 49.6098
3.9838 5.62308 49.6132
3.905 5.57897 49.3821
3.83827 5.57837 49.3852
3.77152 5.57776 49.3882
3.13185 5.51241 48.8448
3.06563 5.51171 48.8463
2.71516 5.45793 48.4645
2.6365 5.44942 48.3045
2.5709 5.44866 48.305
2.513 5.41392 48.2451
2.4353 5.40562 48.0868
2.1349 5.29973 47.1985
2.07074 5.29889 47.1981
2.00439 5.25841 46.9909
1.94051 5.25754 46.9903
1.66568 5.20186 46.49
1.60244 5.20096 46.4887
1.53919 5.20005 46.4874
1.3421 5.15258 46.141
1.27146 5.14551 45.9974
1.21791 5.11272 45.9419
1.14793 5.10582 45.7999
1.08558 5.10485 45.7978
0.894719 5.05877 45.4616
0.832829 5.05777 45.4591
0.583762 5.01131 45.1248
0.465526 4.97283 44.9337
0.401828 4.96915 44.8643
0.338316 4.96547 44.7948
0.0964261 4.92023 44.469
0.0358997 4.91915 44.4651
-0.202044 4.87449 44.1431
-0.262107 4.87338 44.1387
-0.314413 4.8373 43.9594
-0.374215 4.83617 43.9548
-0.435282 4.83272 43.8877
-0.665812 4.79134 43.634
-0.726855 4.78576 43.5062
-0.953147 4.74705 43.3163
-1.18844 4.74231 43.2931
-1.24735 4.739 43.227
-1.29446 4.70615 43.1145
-1.35298 4.70494 43.1083
-1.41133 4.69967 42.9833
-1.70365 4.69761 43.0686
-3.20336 4.8313 44.278
-6.59111 5.18474 47.3288
-6.65287 5.18298 47.3094
-6.71456 5.18122 47.2898
-6.77617 5.17946 47.2702
7.18549 6.01556 53.4168
7.08282 6.00415 53.2228
7.01233 6.00406 53.2333
6.91139 5.9737 53.0012
6.8411 5.97358 53.0113
6.74132 5.94347 52.7818
6.67124 5.94332 52.7914
6.33559 5.8835 52.3561
6.26585 5.88327 52.3647
6.16841 5.87256 52.1782
6.00231 5.86166 52.0009
5.67672 5.80325 51.577
5.60948 5.78457 51.5478
5.51586 5.77438 51.3672
5.44894 5.75575 51.3383
5.35624 5.74572 51.1592
5.28765 5.74533 51.1655
5.04079 5.68905 50.7476
4.97262 5.6886 50.7532
4.81461 5.67845 50.5834
4.5067 5.62279 50.1794
4.35455 5.59528 49.9795
4.20355 5.56796 49.7813
3.83834 5.51329 49.3919
3.77158 5.51266 49.3948
3.62135 5.50319 49.2319
3.55474 5.50254 49.2343
3.19803 5.44865 48.8496
3.13183 5.44793 48.8511
3.0656 5.44721 48.8525
2.98515 5.43867 48.69
2.92271 5.42085 48.6604
2.86033 5.403 48.6306
2.78089 5.39467 48.4699
2.7151 5.39389 48.4705
2.63641 5.3856 48.3106
2.4352 5.34206 48.0927
2.27781 5.2857 47.5665
2.21 5.24496 47.3557
2.13475 5.2374 47.2042
2.07059 5.23654 47.2038
1.8665 5.18812 46.8468
1.79315 5.18083 46.6985
1.60223 5.13952 46.4942
1.53025 5.13244 46.3483
1.47159 5.11548 46.3195
1.40466 5.09254 46.1479
1.34187 5.09159 46.1462
1.14768 5.04528 45.8051
1.08533 5.0443 45.8029
1.01598 5.03763 45.6616
0.832556 4.99764 45.4641
0.764477 4.99117 45.3249
0.702774 4.99015 45.3221
0.644909 4.95265 45.1326
0.583468 4.95161 45.1296
0.398991 4.90725 44.8029
0.338003 4.90619 44.7995
0.27702 4.90512 44.7959
0.0960941 4.86137 44.4736
0.0355653 4.86028 44.4697
-0.0838281 4.83809 44.308
-0.138894 4.82179 44.2792
-0.202396 4.81603 44.1476
-0.435643 4.77458 43.892
-0.496535 4.77122 43.8248
