1.13778 10.0413 30.9033
1.08194 10.0385 30.889
1.02614 10.0356 30.8745
0.970386 10.0327 30.86
2.9797 10.6647 33.0749
2.01393 10.2581 31.764
1.95641 10.2557 31.7515
1.83561 10.1809 31.5455
1.43296 10.0937 31.2737
1.13862 9.98469 30.9025
1.08278 9.98187 30.8882
1.02699 9.97902 30.8737
0.966615 9.96289 30.7976
0.804214 9.8997 30.64
0.74894 9.89673 30.625
0.638525 9.8907 30.5946
0.583386 9.88765 30.5792
0.473246 9.88148 30.5481
0.315119 9.89834 30.6232
0.101069 9.91187 30.6817
-0.0191822 9.9469 30.7013
-0.124257 9.96708 30.7925
-0.395673 9.9769 30.8322
2.93809 10.633 33.2006
1.49425 10.1082 31.4659
1.36632 10.0071 31.1343
1.31002 10.0044 31.1204
1.25124 9.93364 30.9302
1.19533 9.93088 30.916
1.13946 9.92809 30.9018
-0.449797 9.91637 30.8133
-0.556488 9.93625 30.9041
-0.786071 9.99145 31.0136
2.9213 10.5436 33.0651
2.34287 10.337 32.3867
1.66597 10.0585 31.5056
1.55199 10.0534 31.4789
1.43461 9.97945 31.2724
1.19617 9.87428 30.9153
1.1403 9.87149 30.901
0.968315 9.84993 30.7959
-0.232623 9.84659 30.7559
-0.338478 9.86633 30.8468
-0.448783 9.85936 30.8119
2.9308 10.4986 33.1332
1.90125 10.0801 31.7378
1.8438 10.0776 31.725
1.78639 10.0752 31.7121
1.66677 10.0011 31.5051
1.36795 9.89325 31.1331
0.969167 9.79346 30.7951
0.909052 9.77762 30.7188
0.79822 9.77178 30.6889
0.641201 9.72195 30.5916
0.586075 9.71892 30.5761
0.475964 9.71279 30.5449
0.317908 9.7291 30.6198
0.0939414 9.78349 30.7309
-0.0163344 9.77693 30.6977
-0.23164 9.78977 30.7546
1.66757 9.94369 31.5046
1.61057 9.94114 31.4913
1.36878 9.83635 31.1324
1.25375 9.76384 30.928
1.19785 9.76109 30.9138
1.14199 9.75831 30.8994
-0.230655 9.73295 30.7533
-0.336467 9.7523 30.8441
-0.446749 9.74537 30.809
-0.553373 9.76467 30.8996
2.88099 10.3918 33.1911
2.74406 10.359 33.034
2.68429 10.357 33.0231
2.22064 10.1426 32.2968
2.0964 10.068 32.0869
1.78796 9.95969 31.7113
1.73058 9.95721 31.6983
1.48607 9.85216 31.3374
1.3696 9.77946 31.1318
1.19869 9.7045 30.913
1.14284 9.70173 30.8987
0.966235 9.66778 30.7319
0.910763 9.66491 30.7171
-0.0144261 9.66365 30.6952
-0.229669 9.67613 30.752
-0.335459 9.69529 30.8427
2.87308 10.3176 33.1234
2.8046 10.3013 33.0449
1.73138 9.89949 31.6979
1.67403 9.89698 31.6846
1.61219 9.82631 31.4902
1.55523 9.82374 31.4767
1.42674 9.72523 31.145
1.37042 9.72257 31.1311
0.967089 9.61143 30.7311
0.911621 9.60856 30.7163
0.800815 9.60276 30.6862
0.745478 9.59982 30.6711
0.478698 9.54416 30.5417
-0.013469 9.60701 30.694
-0.673103 9.68508 30.9151
2.16371 10.0233 32.2844
1.73217 9.84177 31.6974
1.55605 9.76634 31.4762
1.48769 9.73778 31.3363
1.24833 9.63484 30.978
1.20039 9.59134 30.9115
1.14454 9.58858 30.8971
0.967944 9.55508 30.7303
-0.0125102 9.55039 30.6928
-0.22769 9.56253 30.7493
-0.454784 9.61593 30.8586
-0.672067 9.62785 30.9136
1.73297 9.78406 31.697
1.4885 9.68059 31.3357
1.42838 9.61145 31.1438
1.37208 9.6088 31.1299
0.968802 9.49874 30.7294
0.913342 9.49589 30.7146
0.857926 9.49301 30.6996
0.802554 9.49011 30.6845
-0.0115495 9.49377 30.6916
-0.226697 9.50574 30.748
2.96874 10.2989 33.5944
1.61316 9.70836 31.6061
1.55768 9.65154 31.4751
1.37291 9.55192 31.1292
0.969661 9.4424 30.7286
0.914206 9.43955 30.7137
0.858794 9.43668 30.6987
0.803426 9.43379 30.6836
0.748102 9.43087 30.6683
0.637589 9.42497 30.6375
0.582401 9.42198 30.6219
0.472167 9.41594 30.5905
0.313879 9.4314 30.6656
0.203696 9.42513 30.633
0.0937161 9.41877 30.5999
-0.010587 9.43716 30.6904
-0.669991 9.51341 30.9107
-1.44974 9.63409 31.3463
3.04843 10.2691 33.7448
2.802 10.106 33.1026
1.67723 9.66615 31.6829
1.30682 9.46756 30.9902
1.25081 9.46487 30.976
1.19889 9.4419 30.9354
1.14212 9.40668 30.8333
0.970521 9.38607 30.7278
0.915071 9.38323 30.7129
-0.00962276 9.38055 30.6891
-0.224707 9.39218 30.7454
-0.451769 9.44479 30.8546
-0.66895 9.4562 30.9093
2.76544 10.0289 33.1709
2.62314 10.0403 33.0698
1.67804 9.60845 31.6825
1.43087 9.44082 31.1419
1.37457 9.43818 31.1279
0.971384 9.32974 30.727
0.915937 9.32691 30.712
0.860534 9.32405 30.697
0.805174 9.32117 30.6818
0.749859 9.31827 30.6665
0.694589 9.31534 30.6511
0.639365 9.31239 30.6356
0.584186 9.30942 30.62
0.473971 9.30341 30.5884
0.315729 9.31851 30.6634
0.205566 9.31227 30.6307
0.0956069 9.30595 30.5976
-0.0636722 9.32071 30.671
-0.22371 9.33541 30.744
-0.667907 9.399 30.9078
2.92796 10.144 33.7249
2.77472 9.98283 33.2393
1.67885 9.55076 31.682
1.56014 9.47937 31.4735
1.3754 9.38132 31.1273
1.25248 9.35157 30.9747
0.972248 9.27342 30.7261
0.916806 9.27059 30.7112
0.861406 9.26774 30.6961
0.806051 9.26487 30.6809
0.75074 9.26198 30.6656
0.695475 9.25906 30.6502
0.640255 9.25612 30.6347
0.585081 9.25315 30.619
0.474875 9.24716 30.5874
0.316656 9.26207 30.6623
0.206503 9.25585 30.6296
0.0965549 9.24955 30.5964
-0.666862 9.34181 30.9064
-0.721946 9.3383 30.888
-1.50129 9.42977 31.19
2.77548 9.92288 33.2395
1.49258 9.39472 31.333
1.30931 9.29761 30.9883
1.25332 9.29493 30.974
1.19736 9.29223 30.9596
1.14968 9.24926 30.8924
0.973113 9.21711 30.7253
0.917675 9.21429 30.7103
0.862281 9.21144 30.6952
0.80693 9.20858 30.68
0.751623 9.20569 30.6647
0.641147 9.19984 30.6337
0.585978 9.19689 30.6181
0.207442 9.19944 30.6285
0.0975046 9.19315 30.5953
-0.0617243 9.20755 30.6685
-0.342588 9.25594 30.76
-0.665816 9.28462 30.9049
2.8685 10.0208 33.715
2.69646 9.85532 33.121
1.68046 9.43538 31.6811
1.43336 9.27023 31.14
0.97398 9.1608 30.7245
0.918547 9.15798 30.7095
0.863156 9.15514 30.6944
0.80781 9.15229 30.6791
0.752508 9.1494 30.6638
0.697251 9.1465 30.6483
0.64204 9.14357 30.6328
0.586876 9.14063 30.6171
0.476689 9.13466 30.5854
0.318516 9.14921 30.6601
0.208383 9.14303 30.6273
0.153394 9.13991 30.6108
0.0984559 9.13676 30.5941
-0.0607479 9.15099 30.6672
-0.664768 9.22744 30.9034
-0.719839 9.22396 30.8851
-0.774848 9.22045 30.8666
1.61201 9.35053 31.5395
1.55089 9.28297 31.3457
1.31098 9.18434 30.987
1.25499 9.18167 30.9726
1.19905 9.17898 30.9582
0.808691 9.096 30.6782
0.753394 9.09313 30.6629
0.698142 9.09023 30.6474
0.642935 9.08731 30.6318
0.587775 9.08437 30.6161
0.477598 9.07843 30.5844
0.319448 9.09279 30.659
0.209326 9.08663 30.6262
0.154341 9.08352 30.6096
0.0994087 9.08038 30.5929
-0.340601 9.14231 30.7574
-0.501788 9.15633 30.8298
-0.663718 9.17027 30.902
2.87001 9.89935 33.7157
2.68669 9.74382 33.082
2.33451 9.68875 32.9552
1.55171 9.22581 31.3452
1.31181 9.12771 30.9863
1.25583 9.12504 30.972
1.19989 9.12236 30.9575
1.13405 9.09619 30.8193
1.0867 9.05372 30.7526
1.03119 9.05097 30.7378
0.975719 9.04819 30.7228
0.920294 9.04539 30.7078
0.864912 9.04257 30.6926
0.809574 9.03972 30.6774
0.754281 9.03685 30.662
0.699034 9.03397 30.6465
0.643832 9.03106 30.6309
0.320382 9.03638 30.658
0.21027 9.03024 30.6251
0.155291 9.02713 30.6085
0.100363 9.024 30.5918
-0.0587903 9.03787 30.6647
-0.113724 9.03466 30.6476
-0.284582 9.08881 30.7737
-0.339605 9.08551 30.7561
-0.500765 9.09934 30.8285
2.65836 9.67914 33.2179
2.46394 9.70251 33.1734
2.10579 9.36921 32.0841
2.034 9.34218 31.9419
1.48447 9.14237 31.2053
1.42806 9.13979 31.1913
1.36867 9.07371 30.9999
1.31265 9.07108 30.9857
1.25667 9.06842 30.9713
0.97659 8.99189 30.722
0.921169 8.9891 30.7069
0.865792 8.98628 30.6918
0.810459 8.98345 30.6765
0.75517 8.98059 30.6611
0.699927 8.97771 30.6455
0.64473 8.9748 30.6299
0.589579 8.97188 30.6142
0.479421 8.96597 30.5824
0.321317 8.97997 30.6569
0.211215 8.97385 30.624
0.156241 8.97075 30.6073
0.101319 8.96764 30.5906
-0.49974 9.04237 30.8271
-0.716665 9.0525 30.8806
-0.771655 9.04903 30.8621
-0.83853 9.08631 30.8979
2.33606 9.56954 32.9552
1.61005 9.11404 31.3579
1.3695 9.01709 30.9993
1.31349 9.01446 30.985
1.25752 9.0118 30.9706
1.20158 9.00913 30.9561
0.700822 8.92145 30.6446
0.645629 8.91856 30.629
0.590483 8.91564 30.6132
0.480334 8.90975 30.5814
0.425332 8.90677 30.5653
0.322254 8.92357 30.6558
-0.498713 8.9854 30.8257
-0.553715 8.98203 30.8076
2.20301 9.4798 32.7953
1.55418 9.05436 31.3437
1.48611 9.02851 31.2042
1.31433 8.95784 30.9844
1.25836 8.95519 30.97
1.20243 8.95252 30.9554
1.14156 8.93841 30.879
1.08095 8.92428 30.8024
1.03379 8.88208 30.7353
0.978337 8.87932 30.7203
0.922925 8.87654 30.7052
0.867556 8.87374 30.69
0.812232 8.87092 30.6747
0.756952 8.86807 30.6592
0.701718 8.86521 30.6437
0.64653 8.86232 30.628
0.591389 8.85941 30.6122
0.481249 8.85353 30.5803
0.323192 8.86718 30.6547
0.213111 8.86109 30.6217
0.158147 8.85801 30.605
0.103236 8.85492 30.5883
-0.0558425 8.86824 30.661
-0.176275 8.90177 30.6797
-0.336608 8.91514 30.7522
2.59583 9.50716 33.2036
1.8762 9.18521 32.0318
1.48693 8.97158 31.2037
1.43054 8.96901 31.1896
1.37118 8.90385 30.998
1.31517 8.90123 30.9837
1.25921 8.89859 30.9693
1.20328 8.89592 30.9547
0.868441 8.81747 30.6891
0.813121 8.81466 30.6738
0.757845 8.81182 30.6583
0.702616 8.80896 30.6428
0.647433 8.80609 30.6271
0.592296 8.80319 30.6113
0.482166 8.79732 30.5793
0.324132 8.81079 30.6536
0.214061 8.80472 30.6206
0.159102 8.80165 30.6039
0.104196 8.79857 30.5871
-0.551646 8.86814 30.8048
-0.713478 8.88112 30.8762
-0.835372 8.91473 30.8935
1.67391 9.00831 31.5506
1.60496 8.98256 31.41
1.55583 8.94009 31.3426
1.31602 8.84462 30.9831
1.26005 8.84198 30.9686
1.20413 8.83933 30.954
1.14326 8.82544 30.8776
-0.174322 8.78858 30.6773
-0.334602 8.80159 30.7496
-0.550609 8.8112 30.8034
-1.4491 8.95349 31.251
1.55083 8.87162 31.2794
1.48858 8.85774 31.2026
1.20498 8.78274 30.9534
1.13912 8.75784 30.8151
1.0835 8.75515 30.8003
1.02792 8.75243 30.7853
0.972387 8.74969 30.7702
0.925569 8.70774 30.7027
0.870213 8.70496 30.6874
0.814902 8.70216 30.672
0.759636 8.69934 30.6565
0.704415 8.6965 30.6409
0.649241 8.69364 30.6252
0.594114 8.69075 30.6093
0.484003 8.68493 30.5773
0.429021 8.68198 30.5611
0.326015 8.69803 30.6514
0.215965 8.692 30.6183
0.161017 8.68895 30.6016
0.106121 8.68589 30.5848
0.051279 8.6828 30.5678
-0.0634151 8.73833 30.7108
-0.173343 8.732 30.6761
-0.333597 8.74483 30.7483
-0.388528 8.74157 30.7304
1.4894 8.80083 31.2021
1.42746 8.7871 31.1255
1.3737 8.73402 30.9962
1.31771 8.73142 30.9818
1.20584 8.72615 30.9527
1.14996 8.72348 30.9379
0.53995 8.63165 30.5924
-0.33259 8.68808 30.747
-0.387515 8.68483 30.7291
-0.603441 8.69403 30.7823
-0.8322 8.74321 30.8892
-1.4468 8.83751 31.2476
1.7779 8.81826 31.4497
1.55248 8.75758 31.2783
1.31855 8.67482 30.9811
1.14082 8.6451 30.8137
1.08521 8.64242 30.7988
-0.17138 8.61885 30.6736
-0.386501 8.62809 30.7278
-1.44565 8.77953 31.2459
1.49105 8.68701 31.2011
1.43468 8.68447 31.1869
1.14167 8.58874 30.813
1.08606 8.58606 30.7981
1.0305 8.58337 30.7831
0.974976 8.58065 30.768
0.919498 8.57791 30.7527
0.864063 8.57516 30.7374
0.762331 8.53066 30.6538
0.707124 8.52784 30.6381
0.651964 8.525 30.6223
0.596851 8.52215 30.6064
0.541786 8.51927 30.5904
0.486769 8.51637 30.5743
0.431801 8.51345 30.5581
0.32885 8.52894 30.6482
0.153786 8.55909 30.6512
0.0988154 8.55605 30.6343
0.0438977 8.55299 30.6172
-0.170397 8.56228 30.6724
-0.830078 8.6289 30.8863
-1.44449 8.72156 31.2442
2.42788 9.24056 33.4292
2.35095 9.15902 33.1505
2.28272 9.09064 32.9431
1.49188 8.63011 31.2005
1.42994 8.61671 31.1239
1.37623 8.56423 30.9943
1.32025 8.56165 30.9798
1.14252 8.53238 30.8123
-0.384469 8.51464 30.7252
-0.829014 8.57176 30.8848
-1.44334 8.6636 31.2425
2.7225 9.17799 33.418
1.60982 8.63926 31.4074
1.54912 8.57573 31.2141
1.49271 8.57322 31.2
1.14338 8.47602 30.8116
1.08778 8.47336 30.7967
1.03222 8.47068 30.7816
0.976709 8.46798 30.7665
0.921239 8.46526 30.7512
-0.168427 8.44918 30.67
-0.82795 8.51462 30.8834
2.3525 9.03922 33.1507
1.90801 8.61589 31.6018
1.49354 8.51632 31.1995
1.4316 8.50314 31.1228
1.14423 8.41967 30.8109
1.08864 8.41702 30.796
1.03309 8.41434 30.7809
0.977577 8.41165 30.7657
0.922111 8.40894 30.7504
0.866689 8.4062 30.735
0.755982 8.40068 30.7038
0.700697 8.39788 30.688
0.645459 8.39507 30.6722
0.539837 8.37006 30.6138
0.480032 8.38651 30.6239
0.434593 8.34498 30.555
0.315048 8.37778 30.5746
0.156621 8.38987 30.648
0.101666 8.38686 30.631
0.0467641 8.38383 30.6139
-0.16744 8.39263 30.6688
-0.826884 8.4575 30.8819
-1.44102 8.54771 31.2391
1.89574 8.53691 31.4748
1.67434 8.53809 31.4839
1.43244 8.44636 31.1223
1.37075 8.43326 31.0455
1.31875 8.41131 31.0045
1.14509 8.36333 30.8103
1.0895 8.36068 30.7953
1.03395 8.35801 30.7802
-0.166451 8.33609 30.6676
-0.502404 8.3773 30.7387
-0.71859 8.38558 30.7911
-0.825817 8.40038 30.8805
-1.43986 8.48977 31.2375
1.89655 8.47969 31.4745
1.73829 8.49388 31.5606
1.67515 8.48078 31.4835
1.61227 8.46766 31.4061
1.5516 8.40505 31.2126
1.49521 8.40255 31.1985
1.14595 8.30699 30.8096
1.09036 8.30435 30.7946
1.03482 8.30169 30.7794
0.979316 8.29901 30.7642
0.923859 8.29631 30.7489
0.0486813 8.27109 30.6117
-0.717543 8.32865 30.7897
-0.824748 8.34326 30.879
1.9543 8.42482 31.4876
1.67597 8.42348 31.4831
1.49604 8.34567 31.1979
1.4341 8.33281 31.1212
1.37242 8.31993 31.0444
1.14681 8.25065 30.8089
1.09123 8.24802 30.7939
1.03568 8.24537 30.7787
0.980188 8.2427 30.7635
0.924735 8.24 30.7481
0.869326 8.2373 30.7326
0.758644 8.23182 30.7013
0.703373 8.22905 30.6855
0.592972 8.22346 30.6535
0.537843 8.22064 30.6373
0.482764 8.21779 30.6211
0.427734 8.21493 30.6047
0.317824 8.20915 30.5716
0.159467 8.2207 30.6448
0.0496417 8.21473 30.6105
-0.0599659 8.20869 30.5759
-0.716496 8.27173 30.7883
-0.823678 8.28616 30.8776
-1.43753 8.37393 31.2341
2.84447 9.05946 34.1163
2.78029 9.00281 33.9723
2.56149 8.89451 33.524
1.67679 8.36618 31.4827
1.43494 8.27605 31.1207
1.37326 8.26328 31.0439
1.3172 8.26073 31.0293
1.14767 8.19432 30.8082
1.09209 8.19169 30.7932
1.03655 8.18905 30.778
0.98106 8.18639 30.7627
0.925611 8.1837 30.7473
0.0506033 8.15838 30.6094
-0.0589935 8.15235 30.5747
-0.273067 8.16034 30.6283
-0.499362 8.20703 30.7349
-0.715447 8.21482 30.7869
-0.822607 8.22906 30.8761
1.61473 8.29609 31.4049
1.49771 8.23192 31.1969
1.43577 8.21929 31.1202
1.14853 8.13799 30.8075
1.09295 8.13538 30.7925
1.03742 8.13274 30.7773
0.981934 8.13008 30.762
0.926489 8.12741 30.7466
0.871089 8.12472 30.731
0.760425 8.11927 30.6997
0.705163 8.11652 30.6838
0.59478 8.11097 30.6517
0.539661 8.10816 30.6355
0.484591 8.10534 30.6192
0.42957 8.10249 30.6028
0.319681 8.09675 30.5696
0.16137 8.10796 30.6426
0.051566 8.10203 30.6083
-0.0580198 8.09603 30.5736
-0.714397 8.15792 30.7855
-0.821535 8.17197 30.8747
2.63395 8.84085 33.737
2.01368 8.25549 31.5
1.74157 8.26425 31.5591
1.67843 8.25159 31.4819
1.49855 8.17505 31.1964
1.43661 8.16253 31.1197
1.37493 8.14998 31.0428
1.03829 8.07643 30.7766
0.982808 8.07378 30.7612
0.927368 8.07112 30.7458
0.871972 8.06843 30.7303
0.761317 8.06301 30.6988
0.706059 8.06027 30.683
0.595686 8.05473 30.6508
0.540571 8.05193 30.6346
0.485506 8.04912 30.6183
0.43049 8.04629 30.6018
0.320611 8.04057 30.5686
0.162323 8.05159 30.6416
0.0525298 8.04569 30.6072
-0.713345 8.10103 30.7842
-0.820462 8.11489 30.8733
-1.4474 8.21898 31.1548
2.78261 8.8194 33.9735
2.71268 8.8056 33.8908
1.67314 8.18415 31.4181
1.61637 8.18173 31.4041
1.43185 8.09584 31.0568
1.37577 8.09333 31.0422
1.31973 8.09081 31.0276
1.15025 8.02535 30.8062
1.09469 8.02275 30.7911
1.03916 8.02013 30.7758
0.983684 8.01749 30.7605
0.928248 8.01483 30.7451
0.872856 8.01216 30.7295
0.76221 8.00675 30.698
0.163277 7.99524 30.6405
0.0534947 7.98935 30.6061
-0.0560693 7.9834 30.5713
-0.27005 7.9909 30.6246
-0.496309 8.03682 30.7311
2.77466 8.74655 33.9026
1.61719 8.12455 31.4037
1.50023 8.06133 31.1954
1.43829 8.04902 31.1186
1.09556 7.96645 30.7904
1.04004 7.96383 30.7751
0.98456 7.9612 30.7598
0.929128 7.95855 30.7443
0.873741 7.95588 30.7287
0.763104 7.95049 30.6972
0.707855 7.94777 30.6813
0.5975 7.94227 30.6491
0.542395 7.93949 30.6328
0.432334 7.93388 30.6
0.322474 7.92821 30.5666
0.164233 7.93888 30.6394
0.0544607 7.93302 30.605
-0.0550923 7.92709 30.5702
-0.711239 7.98726 30.7814
-1.66685 8.13116 31.3321
3.03384 8.93773 34.8517
2.13723 8.14692 31.7068
2.07308 8.08614 31.5125
1.67478 8.06979 31.4173
1.43352 7.98255 31.0557
1.37745 7.98006 31.0412
1.32141 7.97755 31.0265
0.93001 7.90228 30.7435
0.874627 7.89962 30.7279
0.763999 7.89424 30.6964
0.708755 7.89153 30.6804
0.598409 7.88605 30.6482
0.543309 7.88328 30.6319
0.488258 7.8805 30.6155
0.433257 7.87769 30.599
0.323407 7.87203 30.5657
0.165189 7.88254 30.6384
-0.494268 7.92339 30.7285
-0.710185 7.93038 30.78
-1.44412 8.05603 31.2157
2.77621 8.62452 33.9034
2.07388 8.02894 31.5123
1.6756 8.01262 31.417
1.61884 8.01022 31.4029
1.43436 7.92592 31.0552
1.37829 7.92343 31.0406
1.31692 7.91135 30.9639
1.25581 7.89926 30.887
1.20845 7.85899 30.8192
1.15285 7.85643 30.8042
1.0973 7.85385 30.789
1.04178 7.85125 30.7737
0.930893 7.846 30.7428
0.875514 7.84335 30.7272
0.764895 7.838 30.6956
0.709655 7.83529 30.6796
0.599319 7.82983 30.6473
0.544223 7.82707 30.631
0.434181 7.82151 30.5981
0.324341 7.81587 30.5647
0.269499 7.81302 30.5478
0.166146 7.8262 30.6373
0.0563955 7.82038 30.6028
-0.0531354 7.8145 30.5679
-0.278105 7.85964 30.6747
-0.493246 7.86668 30.7272
-1.66447 8.01492 31.3287
2.8382 8.56545 33.9152
1.55125 7.93127 31.2621
1.50275 7.89078 31.1939
1.44081 7.8788 31.1171
1.37913 7.8668 31.0401
1.04266 7.79497 30.773
0.931776 7.78974 30.7421
0.876402 7.7871 30.7264
0.765791 7.78176 30.6948
0.710556 7.77906 30.6788
0.600229 7.77362 30.6465
0.545138 7.77087 30.6301
0.435106 7.76533 30.5971
0.325276 7.75971 30.5637
0.270439 7.75687 30.5468
0.167104 7.76986 30.6363
0.0573645 7.76407 30.6017
-0.0521555 7.75821 30.5668
-0.708072 7.81666 30.7773
-1.44172 7.93025 31.1468
2.13251 7.91678 31.525
1.67724 7.89829 31.4162
1.43604 7.81265 31.0542
1.37997 7.81018 31.0396
1.31861 7.79832 30.9628
0.711458 7.72284 30.678
0.601141 7.71741 30.6456
0.546055 7.71468 30.6292
0.436032 7.70915 30.5962
0.326212 7.70355 30.5627
-0.436404 7.75635 30.7432
-0.707015 7.7598 30.7759
-1.44069 7.8825 31.2109
-1.55104 7.88561 31.2352
2.1194 7.84067 31.399
1.67807 7.84113 31.4159
1.38082 7.75356 31.0391
1.31945 7.74181 30.9623
1.25834 7.73005 30.8853
1.20262 7.72753 30.8703
1.1512 7.70627 30.8287
1.09991 7.68499 30.787
1.04441 7.68242 30.7716
0.933546 7.67722 30.7406
0.87818 7.6746 30.7249
0.712362 7.66662 30.6771
0.602053 7.66121 30.6447
0.546972 7.65849 30.6284
0.436959 7.65298 30.5953
0.382028 7.6502 30.5786
0.327149 7.64741 30.5618
0.272322 7.64459 30.5448
0.169023 7.65721 30.6342
0.059305 7.65146 30.5996
-0.0501928 7.64565 30.5645
-0.220323 7.69302 30.6892
-0.275129 7.69003 30.6712
-0.435385 7.69965 30.742
-1.6609 7.84062 31.3236
2.12019 7.78368 31.3988
1.61021 7.76286 31.2752
1.55372 7.76045 31.2609
1.43772 7.6994 31.0533
1.38166 7.69694 31.0386
1.32564 7.69447 31.0238
0.934431 7.62097 30.7398
0.879071 7.61835 30.7241
0.713265 7.6104 30.6763
0.602966 7.60502 30.6439
0.54789 7.6023 30.6275
0.437887 7.59681 30.5944
0.382961 7.59405 30.5776
0.328087 7.59126 30.5608
0.273265 7.58846 30.5439
-0.434365 7.64296 30.7407
-0.704896 7.64612 30.7732
-1.4383 7.75711 31.1421
2.25673 7.80627 31.7321
1.79846 7.78823 31.6249
1.73649 7.72917 31.4292
1.43856 7.64279 31.0528
1.3825 7.64033 31.0381
1.32114 7.62881 30.9612
1.26003 7.61726 30.8842
-0.218346 7.57996 30.687
-0.27314 7.57699 30.6689
-0.433344 7.58627 30.7395
-1.43725 7.70905 31.2062
1.73731 7.67202 31.4289
1.38335 7.58373 31.0376
1.32199 7.57231 30.9607
1.26088 7.56088 30.8837
1.20517 7.55838 30.8686
1.1495 7.55587 30.8534
1.09388 7.55334 30.838
1.04705 7.51363 30.7696
0.936206 7.50848 30.7384
0.880854 7.50588 30.7226
0.715075 7.49799 30.6747
0.604795 7.49264 30.6422
0.549728 7.48995 30.6257
0.439745 7.4845 30.5925
0.384829 7.48176 30.5758
0.329965 7.47899 30.5589
0.275153 7.47621 30.5419
0.0622225 7.4826 30.5963
-0.0579517 7.51421 30.6146
-0.217356 7.52343 30.6858
-0.272144 7.52048 30.6677
-0.326874 7.51752 30.6495
-0.432322 7.52959 30.7383
-1.43601 7.64173 31.139
1.80008 7.6733 31.6244
1.61267 7.59205 31.2741
1.49633 7.53198 31.0664
1.44024 7.52956 31.0518
1.3842 7.52712 31.0371
1.32283 7.51582 30.9602
0.711825 7.43309 30.6125
0.605711 7.43646 30.6413
0.550649 7.43378 30.6249
0.440675 7.42835 30.5916
-0.271148 7.46398 30.6666
-0.325871 7.46102 30.6483
-0.4313 7.47291 30.737
-0.652965 7.49765 30.8157
-0.71379 7.51351 30.8241
-0.823262 7.5073 30.7856
-1.43495 7.59346 31.203
1.80089 7.61583 31.6242
1.73896 7.55771 31.4283
1.44109 7.47296 31.0513
1.38504 7.47052 31.0366
1.32368 7.45933 30.9596
1.26258 7.44812 30.8826
1.20687 7.44564 30.8674
-0.215374 7.4104 30.6836
-0.27015 7.40748 30.6654
-0.324868 7.40454 30.6471
-0.430277 7.41624 30.7358
-1.4338 7.53567 31.2015
1.61432 7.47819 31.2734
1.32453 7.40285 30.9591
1.26342 7.39174 30.882
1.20773 7.38927 30.8669
1.15207 7.38678 30.8516
1.09646 7.38428 30.8363
1.04089 7.38175 30.8208
0.879045 7.32872 30.659
0.709469 7.31243 30.5495
0.552492 7.32145 30.6231
0.442537 7.31607 30.5898
0.387637 7.31336 30.573
0.332788 7.31063 30.556
0.277992 7.30789 30.539
0.168559 7.30235 30.5045
0.054567 7.35086 30.6468
-0.000269772 7.34803 30.6292
-0.0550503 7.34519 30.6114
-0.214381 7.3539 30.6825
-0.323863 7.34806 30.646
-0.82115 7.39355 30.7829
-1.43265 7.4779 31.1999
1.80252 7.50092 31.6237
1.61515 7.42127 31.2731
1.49885 7.36215 31.0651
1.44277 7.35975 31.0504
1.38674 7.35734 31.0356
1.32538 7.34636 30.9586
1.26427 7.33538 30.8815
-0.322858 7.29159 30.6448
-0.428228 7.30293 30.7334
-0.537659 7.29698 30.6959
-0.820093 7.33669 30.7816
-1.43142 7.41105 31.1327
1.80333 7.44346 31.6235
1.67247 7.36669 31.2871
1.61597 7.36435 31.2727
1.38759 7.30075 31.0351
1.32623 7.28989 30.9581
1.26512 7.27901 30.881
1.20943 7.27655 30.8658
1.15379 7.27408 30.8505
1.09818 7.27159 30.8351
0.00165758 7.23536 30.6271
-0.0531119 7.23254 30.6093
-0.212394 7.24091 30.6802
-0.321853 7.23512 30.6436
-0.427202 7.24628 30.7322
-0.819035 7.27983 30.7803
1.6733 7.30977 31.2868
1.6168 7.30743 31.2724
1.26598 7.22265 30.8805
1.21029 7.2202 30.8653
1.15465 7.21773 30.8499
1.09905 7.21525 30.8345
1.04349 7.21276 30.8189
0.868189 7.1886 30.6481
0.712175 7.1445 30.5471
0.555261 7.15301 30.6206
0.445337 7.14769 30.5871
0.325558 7.1789 30.6064
0.270684 7.17619 30.5892
0.161097 7.17072 30.5546
0.00262239 7.17903 30.6261
-0.0521416 7.17622 30.6083
-0.106848 7.1734 30.5904
-0.211399 7.18442 30.6791
-0.763305 7.22601 30.7984
-0.817976 7.22298 30.779
-1.42913 7.29576 31.1296
1.8621 7.33084 31.637
1.61763 7.25052 31.2721
1.49331 7.22906 31.1174
1.43715 7.22668 31.1027
1.38929 7.18759 31.0341
1.32793 7.17695 30.9571
1.26683 7.16629 30.88
1.21115 7.16385 30.8647
1.15551 7.16139 30.8494
-0.0511705 7.11991 30.6073
-0.105872 7.1171 30.5893
-0.210404 7.12794 30.678
-0.319839 7.12221 30.6413
-0.425149 7.133 30.7298
-0.546327 7.16421 30.7467
-0.762252 7.16915 30.7971
1.79306 7.25418 31.4953
1.67494 7.19593 31.2861
1.61845 7.19361 31.2717
1.32878 7.12048 30.9566
1.26768 7.10994 30.8795
1.212 7.1075 30.8642
1.15637 7.10506 30.8488
1.10077 7.10259 30.8333
1.04523 7.10012 30.8177
0.00455413 7.06639 30.6241
-0.0501988 7.06361 30.6063
-0.104894 7.06081 30.5883
-0.318831 7.06577 30.6402
-0.761199 7.1123 30.7958
-0.815856 7.1093 30.7763
1.86373 7.21594 31.6367
1.67577 7.13902 31.2858
1.61928 7.13671 31.2714
1.21286 7.05116 30.8637
1.15723 7.04872 30.8483
1.10164 7.04627 30.8328
1.0461 7.0438 30.8172
0.875275 7.02833 30.7079
0.705527 7.01272 30.5975
0.553168 7.00276 30.6448
0.438216 7.01566 30.6378
0.383252 7.01301 30.6209
0.328341 7.01035 30.6038
0.273482 7.00767 30.5866
0.163926 7.00227 30.5518
0.00552101 7.01007 30.6231
-0.103916 7.00453 30.5872
-0.760144 7.05546 30.7945
-0.814795 7.05247 30.775
-1.49434 7.15755 31.1609
1.86454 7.15849 31.6365
1.62011 7.0798 31.2711
1.55198 7.06135 31.1311
1.4958 7.05901 31.1163
1.44375 7.03845 31.0746
1.39184 7.01787 31.0328
1.33048 7.00756 30.9557
1.26938 6.99724 30.8785
1.21371 6.99482 30.8632
1.15809 6.99239 30.8477
1.1025 6.98995 30.8322
-0.102938 6.94825 30.5862
-0.316813 6.95289 30.6379
-0.543264 6.99413 30.7432
-0.759089 6.99862 30.7933
1.79549 7.08249 31.4947
1.67742 7.02521 31.2852
1.62094 7.0229 31.2708
1.32595 6.94329 30.8932
1.27024 6.9409 30.878
1.21457 6.93849 30.8626
1.15895 6.93607 30.8472
1.10337 6.93363 30.8317
1.04783 6.93118 30.816
0.877033 6.91597 30.7066
0.275351 6.89535 30.5848
0.165816 6.89001 30.55
0.00745667 6.89747 30.6211
-0.101958 6.89197 30.5852
-0.758033 6.94179 30.792
-0.812671 6.93883 30.7725
1.98662 7.10127 31.848
1.92333 7.04584 31.6501
1.86617 7.04361 31.6361
1.67824 6.9683 31.285
1.61581 6.95815 31.2077
1.55364 6.94798 31.1304
1.15981 6.87975 30.8467
1.10424 6.87732 30.8311
1.04871 6.87488 30.8154
0.877913 6.8598 30.7059
0.708195 6.8446 30.5954
0.547209 6.8446 30.6074
0.440975 6.84708 30.6354
0.386026 6.84447 30.6184
0.331129 6.84184 30.6012
0.276286 6.8392 30.5839
0.166761 6.83388 30.5491
0.0084254 6.84117 30.6201
-0.100978 6.8357 30.5841
-0.541218 6.88078 30.7409
-0.756976 6.88496 30.7907
-0.811608 6.88202 30.7712
-1.94927 7.0469 31.4401
1.85402 6.97029 31.5085
1.79711 6.96805 31.4944
1.61068 6.8936 31.1447
1.55446 6.8913 31.1301
1.49829 6.88899 31.1153
1.44215 6.88666 31.1004
1.33844 6.84583 31.0163
1.27195 6.82822 30.877
1.21629 6.82583 30.8616
1.16067 6.82343 30.8461
1.1051 6.82101 30.8306
1.04958 6.81858 30.8149
0.167708 6.77776 30.5481
0.0093947 6.78488 30.6191
-0.0999979 6.77944 30.5831
-0.313781 6.78362 30.6345
-0.540194 6.82411 30.7397
-1.94806 6.9886 31.4384
1.85483 6.91306 31.5083
1.79793 6.91083 31.4942
1.74106 6.90858 31.4799
1.6799 6.8545 31.2844
1.61747 6.84457 31.2071
1.2728 6.77189 30.8765
1.21715 6.76951 30.8611
1.16154 6.76712 30.8456
1.10597 6.76471 30.83
1.05045 6.76229 30.8143
0.879674 6.74747 30.7047
0.709977 6.73254 30.594
0.549025 6.7324 30.6059
0.387878 6.73214 30.6167
0.332991 6.72953 30.5995
0.278158 6.72692 30.5822
0.168654 6.72164 30.5472
0.0103645 6.7286 30.6182
-0.0990168 6.72318 30.5821
-0.593823 6.7646 30.7194
-0.754862 6.77133 30.7882
-0.80948 6.76842 30.7686
2.5165 6.81486 31.3635
1.98902 6.92799 31.8478
1.86212 6.86357 31.5719
1.61829 6.78779 31.2069
1.55612 6.77795 31.1294
1.49995 6.77565 31.1146
1.44382 6.77334 31.0997
1.04651 6.69863 30.752
0.880556 6.69131 30.7041
0.820957 6.68149 30.6261
0.710868 6.67651 30.5933
0.549934 6.67631 30.6051
0.388804 6.67598 30.6159
0.279095 6.67078 30.5813
0.169602 6.66553 30.5463
-0.538145 6.7108 30.7374
-0.592791 6.70796 30.7182
-1.43263 6.81458 31.1731
1.86294 6.80625 31.5718
1.79955 6.7964 31.4938
1.61315 6.72356 31.1439
1.55695 6.72129 31.1291
1.50078 6.71899 31.1143
1.44465 6.71669 31.0993
1.34101 6.6762 31.0149
1.27451 6.65924 30.8756
1.21887 6.65688 30.8601
1.10771 6.65211 30.8289
1.04738 6.64245 30.7514
0.280032 6.61465 30.5805
0.17055 6.60943 30.5454
0.0123057 6.61605 30.6162
-0.0970531 6.61069 30.5801
-0.3222 6.6504 30.6856
-0.591759 6.65133 30.7171
-1.65165 6.76023 31.2182
2.59985 6.76886 31.6821
1.80036 6.73919 31.4937
1.7373 6.72949 31.4159
1.68238 6.68383 31.2836
1.61995 6.67423 31.2063
1.55778 6.66462 31.1288
1.50161 6.66234 31.114
1.21973 6.60057 30.8597
1.10857 6.59582 30.8284
1.04825 6.58627 30.7509
0.88232 6.57901 30.7028
0.822724 6.56941 30.6248
0.712653 6.56448 30.592
0.547917 6.55699 30.5419
0.390659 6.56367 30.6143
0.171498 6.55333 30.5445
0.013277 6.55978 30.6153
-0.8125 6.61621 30.7924
-1.43036 6.69925 31.1703
2.57562 6.64658 31.3764
1.9282 6.70121 31.6494
1.62078 6.61746 31.206
1.55861 6.60796 31.1285
1.50245 6.60568 31.1136
1.04912 6.53009 30.7504
0.98906 6.52064 30.6727
0.878712 6.51581 30.6405
0.823608 6.51338 30.6242
0.713546 6.50847 30.5913
0.548825 6.50101 30.5411
0.391587 6.50753 30.6135
0.172447 6.49724 30.5437
0.117799 6.49463 30.5259
-1.42922 6.6416 31.1688
1.85888 6.62698 31.5077
1.80199 6.62478 31.4934
1.55944 6.5513 31.1282
1.50328 6.54903 31.1133
1.32431 6.52796 30.9431
1.27708 6.49029 30.8742
1.22145 6.48796 30.8587
1.11031 6.48325 30.8274
1.04999 6.47392 30.7498
0.879592 6.45977 30.6399
0.824493 6.45735 30.6236
0.71444 6.45247 30.5906
0.659487 6.45 30.574
0.549732 6.44504 30.5404
0.392516 6.45138 30.6127
0.282847 6.44629 30.5779
0.173396 6.44115 30.5428
0.118754 6.43856 30.525
0.015221 6.44726 30.6133
-0.094104 6.44199 30.577
-0.148679 6.43933 30.5587
-0.319215 6.48095 30.6824
-0.428451 6.4755 30.6447
-1.64812 6.58683 31.2136
2.05057 6.64139 31.8616
1.80281 6.56758 31.4932
1.73974 6.55821 31.4154
1.68487 6.51318 31.2829
1.62244 6.50392 31.2055
1.56027 6.49464 31.128
1.11118 6.42697 30.8269
1.05086 6.41775 30.7493
0.880472 6.40374 30.6393
0.825378 6.40133 30.623
0.715334 6.39646 30.59
0.660386 6.39401 30.5733
0.55064 6.38908 30.5397
0.393445 6.39525 30.6119
0.229039 6.38763 30.5596
0.174346 6.38506 30.5419
0.119709 6.38249 30.5241
0.0161935 6.39101 30.6124
-0.809329 6.44577 30.7887
1.98708 6.57426 31.7832
1.8605 6.51256 31.5074
1.80362 6.51038 31.4931
1.61729 6.44023 31.1425
1.5611 6.43799 31.1277
1.50495 6.43574 31.1127
1.32599 6.41513 30.9423
0.881353 6.34771 30.6387
0.826263 6.34531 30.6224
0.716228 6.34047 30.5893
0.661285 6.33803 30.5727
0.551549 6.33312 30.539
0.394374 6.33912 30.6111
-0.37186 6.36532 30.6615
-0.426435 6.36262 30.6426
1.86131 6.45536 31.5073
1.80444 6.45318 31.493
1.50578 6.37909 31.1124
1.32683 6.35872 30.942
1.27106 6.35643 30.9265
1.22403 6.31907 30.8573
1.0526 6.30543 30.7483
0.882235 6.29168 30.6381
0.827149 6.28929 30.6218
0.717123 6.28447 30.5887
0.662184 6.28205 30.572
0.552457 6.27716 30.5383
0.395304 6.28299 30.6103
0.230929 6.27545 30.5579
0.176246 6.27291 30.5402
0.12162 6.27036 30.5223
0.0181398 6.27853 30.6105
-0.156869 6.30593 30.6097
-0.211461 6.3033 30.5912
-0.370857 6.30887 30.6605
-0.425426 6.30619 30.6415
-1.58976 6.41649 31.2307
2.703 6.41543 31.582
2.05297 6.46814 31.8616
1.99544 6.46601 31.8477
1.80525 6.39598 31.4928
1.73596 6.3801 31.3515
1.67938 6.3779 31.3368
1.62493 6.33363 31.2047
1.56276 6.32469 31.1271
1.50662 6.32245 31.1121
1.04864 6.24273 30.686
0.993422 6.24038 30.67
0.883116 6.23566 30.6375
0.828035 6.23328 30.6212
0.718018 6.22849 30.5881
0.663084 6.22607 30.5713
0.553367 6.22121 30.5376
0.396234 6.22687 30.6095
0.231874 6.21937 30.557
0.177197 6.21684 30.5393
-0.369853 6.25243 30.6595
-0.424416 6.24977 30.6405
-0.639054 6.25236 30.6895
-0.812429 6.29322 30.8128
-1.42354 6.35343 31.1617
2.05377 6.4104 31.8617
1.98272 6.39444 31.7187
1.86293 6.34095 31.5071
1.56359 6.26804 31.1269
1.50745 6.26582 31.1119
1.3285 6.24591 30.9413
0.718913 6.1725 30.5874
0.663984 6.1701 30.5707
0.554276 6.16526 30.5369
-0.36885 6.196 30.6584
-0.423407 6.19335 30.6394
2.05457 6.35266 31.8617
1.80688 6.2816 31.4926
1.73758 6.26615 31.3512
1.50829 6.20918 31.1116
1.32935 6.18951 30.9409
1.2736 6.18725 30.9254
1.21789 6.18497 30.9098
1.05522 6.13697 30.7467
0.995169 6.12831 30.6689
0.88488 6.12363 30.6364
0.829808 6.12127 30.62
0.774784 6.1189 30.6034
0.719809 6.11652 30.5868
0.664884 6.11413 30.57
0.555186 6.10931 30.5362
0.398095 6.11464 30.608
0.233766 6.10722 30.5554
0.1791 6.10472 30.5376
0.12449 6.10221 30.5197
0.0101317 6.14476 30.6619
-0.0993144 6.13965 30.6253
-0.153949 6.13707 30.6069
-0.208523 6.13449 30.5883
-0.367846 6.13957 30.6574
-0.422397 6.13693 30.6384
-0.81033 6.17956 30.8105
-1.42126 6.23822 31.1589
2.69544 6.1964 31.403
2.05537 6.29492 31.8617
1.8077 6.22441 31.4925
1.7384 6.20918 31.3511
1.68584 6.18948 31.309
1.62742 6.16337 31.2041
1.56525 6.15476 31.1264
1.50912 6.15255 31.1113
1.05125 6.07458 30.6845
0.996043 6.07227 30.6684
0.885763 6.06762 30.6359
0.830695 6.06527 30.6194
0.720705 6.06055 30.5862
0.665785 6.05817 30.5694
0.556096 6.05337 30.5355
0.391953 6.0461 30.4838
0.234713 6.05115 30.5546
0.180052 6.04867 30.5368
-0.366842 6.08315 30.6564
-0.421386 6.08053 30.6373
-0.475868 6.0779 30.6181
-0.80928 6.12274 30.8093
2.69622 6.13963 31.4032
1.98512 6.22188 31.7187
1.92227 6.1715 31.5212
1.86537 6.16937 31.5069
1.80851 6.16723 31.4924
1.50996 6.09593 31.1111
1.33103 6.07672 30.9403
1.27528 6.07448 30.9247
-0.152 6.02453 30.605
-0.206563 6.02198 30.5864
-0.420375 6.02412 30.6363
-0.474851 6.02151 30.6171
2.12158 6.18805 31.9406
1.86618 6.11218 31.5068
1.74002 6.09524 31.3508
1.33187 6.02033 30.9399
1.27613 6.0181 30.9244
1.22043 6.01585 30.9087
1.05784 5.96854 30.7453
0.997791 5.96022 30.6674
0.887529 5.95561 30.6348
0.832469 5.95329 30.6183
0.777459 5.95095 30.6017
0.722498 5.94861 30.5849
0.667587 5.94625 30.5681
0.557917 5.94151 30.5341
0.50316 5.93912 30.517
0.393804 5.93431 30.4823
0.236606 5.93903 30.5529
-0.151025 5.96827 30.6041
-0.205583 5.96573 30.5855
-0.260079 5.96318 30.5667
-0.364832 5.97032 30.6544
-0.808314 6.00285 30.7432
1.74084 6.03828 31.3507
1.68428 6.03613 31.336
1.62391 5.98703 31.1407
1.56775 5.98486 31.1257
1.51163 5.98268 31.1106
1.33271 5.96394 30.9396
0.833357 5.8973 30.6177
0.778351 5.89498 30.6011
0.723394 5.89264 30.5843
0.668488 5.8903 30.5675
0.613632 5.88795 30.5505
0.558828 5.88558 30.5335
0.394729 5.87843 30.4816
-0.15005 5.91201 30.6032
-0.204602 5.90948 30.5845
-0.259092 5.90695 30.5657
-0.363827 5.91391 30.6534
-0.418353 5.91134 30.6342
-0.472816 5.90876 30.615
-0.699563 5.94529 30.7181
-0.806127 5.95232 30.8058
1.98751 6.04933 31.7189
1.9247 5.99991 31.5211
1.51246 5.92606 31.1103
1.33355 5.90756 30.9393
1.27782 5.90534 30.9237
1.22213 5.90312 30.9079
-0.203621 5.85324 30.5836
-0.258105 5.85073 30.5648
-0.806218 5.88947 30.7409
-1.59393 5.97756 31.1446
1.79905 5.92647 31.3652
1.74246 5.92435 31.3505
1.68591 5.92222 31.3357
1.33439 5.85118 30.939
1.27867 5.84897 30.9234
1.22298 5.84675 30.9076
1.05109 5.81142 30.7088
0.995856 5.80916 30.6925
0.945273 5.7899 30.6496
0.890179 5.78762 30.6332
0.835133 5.78534 30.6166
0.780136 5.78304 30.5999
0.725188 5.78073 30.5832
0.670291 5.77841 30.5663
0.615445 5.77608 30.5493
0.56065 5.77374 30.5321
0.505908 5.77139 30.5149
0.396582 5.76666 30.4801
0.228907 5.80504 30.6043
0.119506 5.8002 30.5684
0.0103345 5.79531 30.532
-0.697499 5.83206 30.7159
-0.805169 5.83278 30.7398
1.79986 5.86951 31.3652
1.74328 5.8674 31.3505
1.68673 5.86527 31.3356
1.61827 5.85139 31.1944
1.57025 5.81498 31.1251
1.51414 5.81283 31.1099
1.33523 5.7948 30.9387
-0.256131 5.7383 30.5629
-0.469762 5.73967 30.6119
-0.696467 5.77546 30.7148
-0.80527 5.77026 30.6749
-1.59164 5.86235 31.1419
2.04718 5.87885 31.7333
1.92713 5.82833 31.5211
1.80068 5.81254 31.3651
1.74409 5.81044 31.3504
1.51497 5.75622 31.1097
1.33608 5.73842 30.9384
1.28036 5.73624 30.9227
1.22468 5.73404 30.9069
0.0122404 5.68316 30.5303
-0.255143 5.68209 30.562
-0.695435 5.71886 30.7137
-0.804224 5.7137 30.6738
-1.5905 5.80476 31.1405
2.79888 5.73496 31.306
2.17687 5.83713 31.8905
1.80149 5.75558 31.3651
1.74491 5.75349 31.3503
1.68837 5.75138 31.3354
1.33692 5.68205 30.9382
1.2812 5.67987 30.9224
1.22553 5.67769 30.9066
1.04915 5.66006 30.7342
0.993878 5.65784 30.7179
0.947911 5.62191 30.6482
0.89283 5.61967 30.6316
0.837797 5.61742 30.615
0.782814 5.61516 30.5983
0.72788 5.61289 30.5814
0.672997 5.61061 30.5645
0.618165 5.60832 30.5474
0.563385 5.60602 30.5302
0.508657 5.60371 30.5129
0.399361 5.59906 30.478
0.231702 5.63664 30.6021
0.122333 5.63188 30.5661
0.0131936 5.62709 30.5295
-0.694402 5.66227 30.7127
-0.803179 5.65715 30.6727
-1.58936 5.74717 31.1391
2.10608 5.76586 31.7476
2.04877 5.76382 31.7335
1.8023 5.69862 31.365
1.74572 5.69653 31.3503
1.62072 5.68121 31.194
1.56861 5.66211 31.1517
1.51664 5.643 31.1093
1.33776 5.62568 30.9379
1.28205 5.62351 30.9222
1.22638 5.62134 30.9063
-0.253167 5.56969 30.5602
-0.478642 5.60472 30.6635
-0.693369 5.60568 30.7116
-1.58821 5.68959 31.1378
2.04957 5.70631 31.7336
1.97884 5.69305 31.5909
1.92956 5.65678 31.5211
1.80311 5.64166 31.365
1.74654 5.63959 31.3502
1.3386 5.56931 30.9376
1.28289 5.56716 30.9219
1.22723 5.56499 30.906
0.124218 5.51969 30.5645
0.0696303 5.51733 30.5463
0.0151007 5.51496 30.5279
-0.252179 5.5135 30.5592
-0.692336 5.5491 30.7106
-0.801086 5.54405 30.6705
-1.58707 5.63202 31.1364
2.10766 5.65082 31.7479
1.86053 5.58677 31.3797
1.80392 5.58471 31.365
1.74735 5.58264 31.3502
1.28374 5.5108 30.9216
1.22808 5.50865 30.9057
1.05172 5.49174 30.733
0.99646 5.48955 30.7167
0.941249 5.48736 30.7002
0.886086 5.48515 30.6836
0.830971 5.48293 30.6669
0.775907 5.48071 30.6501
0.720892 5.47847 30.6332
0.665928 5.47623 30.6161
0.611016 5.47398 30.599
0.556155 5.47172 30.5817
0.501348 5.46945 30.5643
0.391893 5.46488 30.5292
0.234498 5.46828 30.6
0.125161 5.46361 30.5638
0.0705785 5.46126 30.5455
0.0160544 5.4589 30.5271
-0.691303 5.49253 30.7096
-0.80004 5.48752 30.6694
-1.42149 5.57133 31.0686
2.10846 5.5933 31.7481
2.05116 5.59129 31.7339
1.80473 5.52775 31.365
1.74816 5.52569 31.3501
1.62317 5.51104 31.1937
1.56694 5.50896 31.1785
1.51915 5.4732 31.1087
1.45182 5.46082 30.9684
1.34029 5.45658 30.9371
1.28459 5.45445 30.9213
1.22893 5.45231 30.9054
-0.250202 5.40114 30.5575
-0.584447 5.43053 30.6214
-0.69027 5.43596 30.7085
2.24572 5.5956 32.0923
2.05196 5.53378 31.734
1.98122 5.52118 31.5912
1.86214 5.47284 31.3797
1.80554 5.4708 31.365
1.74898 5.46875 31.3501
1.34113 5.40022 30.9369
1.28543 5.3981 30.9211
1.22978 5.39597 30.9051
1.05343 5.37954 30.7323
0.998182 5.37738 30.7159
0.942979 5.3752 30.6994
0.887825 5.37302 30.6828
0.667703 5.3642 30.6151
0.393716 5.35299 30.528
0.127047 5.35145 30.5623
0.0724753 5.34913 30.544
0.0179622 5.3468 30.5256
-0.583433 5.37415 30.6204
-0.689237 5.3794 30.7075
-0.797947 5.37446 30.6672
-1.41926 5.45654 31.0661
-1.81905 5.4998 31.3007
2.24651 5.53754 32.0926
2.11005 5.47827 31.7484
1.86295 5.41588 31.3797
1.80635 5.41385 31.365
1.6248 5.39761 31.1936
1.28628 5.34176 30.9208
1.23063 5.33963 30.9048
1.05429 5.32345 30.732
0.999044 5.32129 30.7155
0.943845 5.31913 30.699
0.888695 5.31696 30.6823
0.833593 5.31478 30.6656
0.778542 5.3126 30.6487
0.668591 5.3082 30.6146
0.613692 5.30598 30.5974
0.558846 5.30376 30.5801
0.504053 5.30153 30.5626
0.394628 5.29705 30.5274
0.12799 5.29538 30.5616
0.0734237 5.29307 30.5433
0.0189162 5.29076 30.5248
-0.0355323 5.28844 30.5062
-0.582418 5.31777 30.6194
-0.688204 5.32284 30.7065
-1.41815 5.39916 31.0649
-1.81886 5.44726 31.3663
2.11084 5.42076 31.7486
2.0467 5.41369 31.6701
1.62562 5.3409 31.1935
1.5694 5.33884 31.1782
1.50178 5.32696 31.0371
1.45432 5.29169 30.9678
1.39855 5.28961 30.9522
1.34281 5.28751 30.9364
1.28712 5.28541 30.9206
1.23148 5.2833 30.9046
1.05515 5.26735 30.7316
0.128933 5.23931 30.5609
0.0743723 5.23702 30.5425
0.0198702 5.23473 30.5241
-0.0345726 5.23242 30.5055
-0.367612 5.26124 30.5705
-0.581404 5.26139 30.6184
-1.41703 5.34178 31.0636
-1.52673 5.34687 31.1518
-1.81769 5.38925 31.365
2.04749 5.35629 31.6703
1.98361 5.34932 31.5916
1.92781 5.30884 31.458
1.86457 5.30197 31.3798
1.80798 5.29995 31.365
1.39939 5.23324 30.952
1.34366 5.23116 30.9362
1.28797 5.22907 30.9203
1.23233 5.22697 30.9043
1.056 5.21127 30.7313
1.00077 5.20914 30.7148
0.945576 5.207 30.6982
0.890434 5.20485 30.6815
0.835342 5.2027 30.6647
0.780299 5.20054 30.6478
0.670366 5.19619 30.6136
0.615477 5.19401 30.5964
0.56064 5.19181 30.579
0.505857 5.18961 30.5615
0.396451 5.18518 30.5262
0.341831 5.18295 30.5084
0.129876 5.18324 30.5602
0.0753208 5.18097 30.5418
0.0208243 5.17869 30.5233
-0.033613 5.17641 30.5047
-0.580389 5.20502 30.6175
-0.794807 5.20491 30.6641
-1.41592 5.28441 31.0624
-1.52559 5.28931 31.1505
2.23428 5.35333 31.9629
2.11243 5.30574 31.749
2.05515 5.30376 31.7347
1.80879 5.24301 31.365
1.62725 5.22748 31.1934
1.57104 5.22544 31.1781
1.05686 5.15518 30.731
1.00163 5.15306 30.7145
0.946441 5.15094 30.6979
0.891304 5.14881 30.6812
0.836216 5.14667 30.6643
0.781178 5.14452 30.6474
0.671254 5.1402 30.6131
0.616369 5.13802 30.5959
0.561537 5.13584 30.5785
0.506759 5.13365 30.561
0.397363 5.12925 30.5256
0.342747 5.12704 30.5078
0.233684 5.12259 30.4717
0.0762693 5.12493 30.5411
-0.365644 5.14879 30.5688
-0.579375 5.14866 30.6165
2.11322 5.24822 31.7492
2.04908 5.24149 31.6706
1.62806 5.17077 31.1934
1.57185 5.16874 31.178
1.50996 5.16211 31.0997
1.45258 5.13903 30.9943
1.40106 5.12053 30.9516
1.34534 5.11847 30.9358
1.28966 5.1164 30.9199
1.23403 5.11432 30.9038
1.05772 5.0991 30.7307
0.234611 5.06671 30.4711
0.0772179 5.06889 30.5404
0.0227324 5.06664 30.5218
-0.0316936 5.06439 30.5032
-0.140365 5.05985 30.4655
-0.250063 5.08067 30.5794
-0.310289 5.09488 30.5873
-0.36466 5.09257 30.568
-1.41369 5.16968 31.06
-1.52332 5.17423 31.148
2.30836 5.24918 32.1081
2.04987 5.1841 31.6708
1.98599 5.17747 31.5921
1.92243 5.17087 31.5136
1.86699 5.13111 31.38
1.81041 5.12912 31.3651
1.29051 5.06007 30.9196
1.22971 5.05362 30.8414
1.05858 5.04302 30.7303
1.00335 5.04092 30.7138
0.948172 5.03882 30.6972
0.893043 5.03672 30.6804
0.837964 5.0346 30.6635
0.782935 5.03248 30.6465
0.673029 5.02821 30.6122
0.618154 5.02607 30.5949
0.508562 5.02175 30.5599
0.453847 5.01959 30.5422
0.399187 5.01741 30.5244
0.344581 5.01523 30.5066
0.235538 5.01084 30.4704
0.0781663 5.01286 30.5397
0.0236864 5.01062 30.5211
-0.804329 5.06867 30.716
-0.858635 5.06629 30.6956
-1.41258 5.11233 31.0588
2.30915 5.19111 32.1085
2.17211 5.13515 31.7639
2.11481 5.13321 31.7497
2.05753 5.13125 31.7353
1.81122 5.07218 31.3652
1.68594 5.05936 31.2086
1.62969 5.05736 31.1933
1.57349 5.05535 31.1779
1.51733 5.05333 31.1624
1.05943 4.98694 30.73
1.00421 4.98486 30.7135
0.949037 4.98277 30.6968
0.893913 4.98068 30.68
0.838838 4.97858 30.6631
0.783813 4.97647 30.6461
0.673917 4.97223 30.6118
0.619046 4.97009 30.5944
0.509464 4.96581 30.5594
0.400098 4.96149 30.5239
0.345498 4.95933 30.506
0.236465 4.95497 30.4698
-0.308333 4.98242 30.5857
-0.362692 4.98015 30.5663
-0.576331 4.9796 30.6137
2.30993 5.13305 32.1089
2.1156 5.0757 31.7499
2.05146 5.06931 31.6712
1.98758 5.06291 31.5924
1.68675 5.00265 31.2086
1.63051 5.00066 31.1933
1.57431 4.99866 31.1779
1.51242 4.99237 31.0995
1.45079 4.98608 31.021
1.39926 4.96777 30.9782
1.3435 4.96574 30.9623
1.2922 4.94741 30.9192
1.23658 4.94537 30.9031
1.06029 4.93086 30.7298
1.00507 4.9288 30.7132
0.949902 4.92672 30.6965
0.894782 4.92464 30.6797
0.839712 4.92255 30.6627
0.784691 4.92046 30.6457
0.674804 4.91624 30.6113
0.619938 4.91412 30.5939
0.510366 4.90987 30.5588
0.40101 4.90558 30.5233
0.346415 4.90343 30.5054
0.237392 4.8991 30.4692
0.0800631 4.9008 30.5383
0.0255943 4.8986 30.5197
-0.0288149 4.89639 30.5009
-0.143113 4.90824 30.49
-0.252939 4.92845 30.6042
-0.307356 4.9262 30.5849
-0.361708 4.92394 30.5655
-0.80227 4.95549 30.7141
-1.41035 4.99765 31.0564
2.31071 5.07499 32.1093
2.05225 5.01191 31.6715
1.98837 5.00563 31.5926
1.92481 4.99937 31.514
1.86941 4.96027 31.3802
1.81284 4.9583 31.3653
1.68756 4.94594 31.2086
1.63133 4.94396 31.1933
1.23225 4.88498 30.8408
1.06115 4.87479 30.7295
1.00593 4.87274 30.7129
0.950767 4.87068 30.6961
0.895651 4.86861 30.6793
0.840585 4.86653 30.6624
0.78557 4.86445 30.6453
0.675691 4.86026 30.6109
0.62083 4.85816 30.5935
0.511268 4.85393 30.5583
0.456567 4.85181 30.5406
0.401922 4.84968 30.5228
0.347331 4.84754 30.5048
0.238319 4.84324 30.4686
0.0810113 4.84478 30.5376
-0.574303 4.86692 30.6119
-0.801241 4.89892 30.7131
2.30407 5.01255 32.0443
2.23896 5.00628 31.9649
2.11718 4.96068 31.7504
2.05304 4.95452 31.6717
1.74465 4.8912 31.2239
1.68837 4.88923 31.2086
1.63214 4.88726 31.1933
1.57595 4.88528 31.1778
1.51406 4.87922 31.0994
1.062 4.81872 30.7292
1.00679 4.81668 30.7126
0.951632 4.81463 30.6958
0.896521 4.81258 30.679
0.841459 4.81051 30.662
0.786448 4.80845 30.6449
0.676579 4.80429 30.6104
0.621722 4.8022 30.593
0.512169 4.798 30.5578
0.457474 4.79589 30.5401
0.402833 4.79377 30.5222
0.348248 4.79165 30.5042
-0.3054 4.81377 30.5833
2.37022 4.96075 32.124
2.11798 4.90318 31.7507
2.05384 4.89713 31.6719
1.68918 4.83253 31.2087
1.63296 4.83057 31.1933
1.57677 4.8286 31.1778
1.51488 4.82265 31.0993
1.45325 4.8167 31.0207
1.40175 4.79858 30.9778
1.346 4.79658 30.9619
1.29473 4.77844 30.9187
1.23394 4.77257 30.8404
1.06286 4.76266 30.7289
1.00765 4.76063 30.7123
0.952497 4.75859 30.6955
0.89739 4.75655 30.6786
0.842333 4.7545 30.6617
0.787326 4.75244 30.6446
0.677466 4.74831 30.61
0.622614 4.74624 30.5926
0.513071 4.74207 30.5574
0.45838 4.73997 30.5396
0.403744 4.73787 30.5217
0.349164 4.73576 30.5037
0.240173 4.73153 30.4674
0.0829074 4.73275 30.5363
-0.025937 4.72844 30.4988
-0.14591 4.75636 30.5147
-0.304422 4.75757 30.5825
-0.799183 4.78577 30.7113
-1.40701 4.82567 31.0529
2.30563 4.89664 32.0451
2.04775 4.83572 31.6079
1.99075 4.8338 31.5933
1.92719 4.82788 31.5146
1.87183 4.78943 31.3806
1.81527 4.7875 31.3656
1.74626 4.77776 31.224
1.69 4.77582 31.2087
1.63377 4.77387 31.1933
1.57759 4.77191 31.1778
1.17426 4.71061 30.7617
1.06371 4.70659 30.7287
1.00851 4.70458 30.712
0.953362 4.70255 30.6952
0.898259 4.70053 30.6783
0.843206 4.69849 30.6613
0.788203 4.69645 30.6442
0.678353 4.69234 30.6096
0.623506 4.69028 30.5921
0.513972 4.68614 30.5569
0.459286 4.68406 30.5391
0.404656 4.68198 30.5212
0.350081 4.67988 30.5031
0.2411 4.67568 30.4668
-0.303445 4.70137 30.5817
-0.516971 4.70016 30.6292
-0.798154 4.72921 30.7103
2.29898 4.83464 31.9802
2.2413 4.83276 31.966
2.17685 4.79006 31.7656
2.11956 4.78817 31.7512
2.04854 4.77843 31.6081
1.74707 4.72105 31.2241
1.69081 4.71912 31.2088
1.63458 4.71718 31.1934
1.5784 4.71523 31.1778
1.51652 4.70951 31.0993
0.899128 4.6445 30.678
0.844079 4.64248 30.661
0.789081 4.64045 30.6438
0.67924 4.63638 30.6092
0.624398 4.63433 30.5917
0.514873 4.63022 30.5564
0.460193 4.62815 30.5386
-0.302467 4.64517 30.581
2.37256 4.78654 32.1253
2.30719 4.78073 32.046
2.04933 4.72115 31.6084
1.99234 4.71925 31.5937
1.92878 4.71356 31.515
1.6354 4.66049 31.1934
1.57922 4.65855 31.1779
1.51734 4.65295 31.0993
1.45571 4.64735 31.0206
1.39988 4.64539 31.0047
1.3441 4.64344 30.9886
1.29281 4.62548 30.9454
1.23648 4.60397 30.8398
1.17596 4.59844 30.7613
1.06543 4.59448 30.7282
1.01023 4.59248 30.7115
0.95509 4.59049 30.6946
0.899996 4.58849 30.6777
0.844952 4.58648 30.6606
0.789959 4.58446 30.6435
0.680126 4.58041 30.6088
0.625289 4.57838 30.5913
0.515774 4.5743 30.5559
0.461098 4.57225 30.5381
0.406478 4.57019 30.5201
0.351913 4.56813 30.5021
0.242953 4.56399 30.4656
-0.0342885 4.59248 30.5507
-0.143046 4.58824 30.5126
-0.30149 4.58898 30.5802
-0.741773 4.61831 30.729
-0.796096 4.6161 30.7085
2.30797 4.72278 32.0464
2.05012 4.66387 31.6087
1.99313 4.66198 31.594
1.92957 4.6564 31.5152
1.87026 4.63472 31.4086
1.8177 4.61671 31.3659
1.74869 4.60763 31.2242
1.69243 4.60571 31.2089
1.63621 4.6038 31.1935
1.58004 4.60187 31.1779
1.06628 4.53842 30.7279
1.01109 4.53644 30.7112
0.955955 4.53446 30.6944
0.900865 4.53247 30.6774
0.845825 4.53047 30.6603
0.790836 4.52847 30.6431
0.681013 4.52446 30.6084
0.62618 4.52244 30.5909
0.516675 4.51838 30.5555
0.462004 4.51635 30.5376
0.407388 4.51431 30.5196
0.352829 4.51226 30.5016
0.298325 4.51021 30.4834
0.243879 4.50816 30.465
-0.300513 4.53279 30.5795
-0.51395 4.53117 30.6267
-0.740752 4.56175 30.7281
-0.795068 4.55956 30.7076
2.30131 4.6611 31.9815
2.24364 4.65925 31.9673
2.12193 4.61566 31.7521
2.05091 4.60658 31.609
1.99392 4.60471 31.5942
1.74949 4.55092 31.2244
1.69324 4.54902 31.209
1.63703 4.54711 31.1935
1.58086 4.54519 31.1779
1.51897 4.53982 31.0993
1.45735 4.53445 31.0205
1.40153 4.53252 31.0046
-0.141137 4.47618 30.5112
-0.299536 4.47661 30.5787
-0.73973 4.50519 30.7272
2.3749 4.61233 32.1268
2.0517 4.5493 31.6092
1.99471 4.54744 31.5945
1.69405 4.49232 31.2091
1.63784 4.49042 31.1936
1.58167 4.48852 31.178
1.51979 4.48326 31.0993
1.45817 4.478 31.0205
1.40235 4.47609 31.0045
1.34658 4.47416 30.9884
1.29085 4.47224 30.9722
1.23453 4.45115 30.8661
1.1785 4.4302 30.7607
1.06799 4.42632 30.7275
1.01281 4.42437 30.7107
0.957682 4.42241 30.6938
0.84757 4.41848 30.6597
0.79259 4.41651 30.6425
0.682785 4.41255 30.6077
0.627962 4.41056 30.5901
0.463815 4.40456 30.5367
0.35466 4.40054 30.5005
0.300167 4.39852 30.4823
0.245731 4.39649 30.4639
0.0718019 4.4219 30.4615
-0.140183 4.42016 30.5106
-0.298559 4.42043 30.578
-0.738708 4.44863 30.7264
-0.793011 4.44648 30.7058
-1.41451 4.51464 31.1033
2.30287 4.54541 31.9824
2.24519 4.54357 31.9681
1.9955 4.49016 31.5948
1.93195 4.48493 31.5159
1.86865 4.4797 31.4369
1.81606 4.46188 31.394
1.75111 4.4375 31.2246
1.69486 4.43562 31.2092
1.63865 4.43373 31.1937
1.51485 4.42346 31.0364
0.848442 4.36249 30.6594
0.793466 4.36053 30.6422
0.683671 4.35659 30.6073
0.628852 4.35462 30.5897
0.46472 4.34867 30.5362
-0.297582 4.36426 30.5773
-0.517055 4.37815 30.6517
-0.737687 4.39208 30.7255
-0.791983 4.38995 30.7049
2.30364 4.48756 31.9828
2.24597 4.48573 31.9686
2.05328 4.43474 31.6098
1.75191 4.3808 31.2247
1.69567 4.37893 31.2093
1.63947 4.37705 31.1937
1.51567 4.367 31.0364
