1.54579 7.98749 31.0845
1.48964 7.98503 31.0702
1.43352 7.98255 31.0557
1.37745 7.98006 31.0412
1.32141 7.97755 31.0265
1.26542 7.97502 31.0117
1.20946 7.97247 30.9968
1.09768 7.96731 30.9666
1.04185 7.96471 30.9513
0.930331 7.95945 30.9204
0.763385 7.95141 30.8733
0.0565161 7.95372 30.9078
-0.0540994 7.9478 30.8728
-0.109323 7.94481 30.8552
-0.164491 7.9418 30.8374
-0.32535 7.95232 30.9099
-0.435608 7.94614 30.8734
2.6137 8.12662 31.9349
2.5559 8.12454 31.9228
2.35934 8.04002 31.5767
2.30219 8.03785 31.5641
2.2379 8.02588 31.4884
2.17387 8.01389 31.4126
2.11702 8.01166 31.3995
2.06021 8.0094 31.3864
1.60281 7.93327 31.0983
1.54662 7.93083 31.0841
1.49047 7.92838 31.0697
1.43436 7.92592 31.0552
1.37829 7.92343 31.0406
1.32226 7.92092 31.0259
1.26627 7.9184 31.0111
1.21032 7.91586 30.9962
1.09854 7.91072 30.9659
1.04272 7.90812 30.9507
0.931204 7.90287 30.9197
0.875514 7.90022 30.9041
0.764271 7.89487 30.8725
0.708719 7.89216 30.8565
0.0574805 7.89689 30.9067
-0.053124 7.89099 30.8718
-0.108342 7.88801 30.8541
-0.163504 7.88501 30.8363
-1.09998 7.94882 31.0829
2.55668 8.06679 31.9228
2.4835 8.04495 31.7828
2.23869 7.96877 31.4883
2.17465 7.95689 31.4124
2.11781 7.95466 31.3993
2.06101 7.9524 31.3861
2.00423 7.95013 31.3728
1.93437 7.9286 31.2341
1.77241 7.88378 31.14
1.71611 7.88141 31.1261
1.65985 7.87902 31.112
1.60363 7.87661 31.0979
1.54745 7.87419 31.0836
1.4913 7.87174 31.0692
1.4352 7.86928 31.0547
1.37913 7.8668 31.0401
1.3231 7.8643 31.0254
1.26711 7.86179 31.0105
1.21117 7.85925 30.9956
1.0994 7.85413 30.9653
1.04358 7.85154 30.95
0.932077 7.84631 30.919
0.876391 7.84367 30.9034
0.0584458 7.84006 30.9057
-0.0521477 7.83418 30.8707
-0.10736 7.83122 30.853
-0.162516 7.82824 30.8352
-0.433559 7.83228 30.8708
-0.662254 7.87781 30.9787
-0.717352 7.87464 30.9597
-0.772387 7.87145 30.9406
2.48427 7.98742 31.7828
2.36091 7.92559 31.5765
2.30377 7.92341 31.5638
2.23948 7.91166 31.4881
2.17544 7.89989 31.4122
1.71693 7.82475 31.1257
1.66068 7.82237 31.1116
1.60446 7.81997 31.0975
1.54828 7.81755 31.0832
1.49214 7.81511 31.0688
1.43604 7.81265 31.0542
1.37997 7.81018 31.0396
1.32395 7.80769 31.0249
1.26796 7.80518 31.01
1.21202 7.80265 30.995
1.15612 7.8001 30.9799
1.10026 7.79754 30.9647
1.04445 7.79496 30.9494
0.932952 7.78975 30.9184
0.87727 7.78711 30.9027
0.766045 7.78179 30.871
0.0594121 7.78324 30.9046
-0.106378 7.77443 30.8519
-0.161528 7.77146 30.834
-0.216621 7.76848 30.8161
-1.09776 7.83382 31.0799
2.62585 8.0115 32.1193
2.48505 7.92989 31.7827
2.30456 7.8662 31.5637
2.24027 7.85456 31.488
2.17623 7.8429 31.4121
2.1194 7.84067 31.399
2.0626 7.83842 31.3857
2.00582 7.83616 31.3724
1.49298 7.75847 31.0683
1.43688 7.75603 31.0537
1.38082 7.75356 31.0391
1.3248 7.75107 31.0243
1.26882 7.74857 31.0094
1.21288 7.74605 30.9944
1.15698 7.74352 30.9793
1.10113 7.74096 30.9641
1.04532 7.73839 30.9487
0.933827 7.73319 30.9177
0.87815 7.73056 30.902
0.766933 7.72526 30.8702
0.0603792 7.72642 30.9036
-0.715261 7.76031 30.9571
-0.770282 7.75716 30.9379
-0.933112 7.76678 31.0084
2.48582 7.87237 31.7828
2.23389 7.78811 31.4249
2.17702 7.7859 31.4119
2.12019 7.78368 31.3988
2.06339 7.78144 31.3855
2.00662 7.77918 31.3722
1.93675 7.75828 31.2334
1.88754 7.71845 31.1665
1.77486 7.71379 31.1389
1.71858 7.71144 31.1249
1.66233 7.70907 31.1108
1.60612 7.70668 31.0966
1.54995 7.70427 31.0823
1.49381 7.70185 31.0678
1.43772 7.6994 31.0533
1.38166 7.69694 31.0386
1.32564 7.69447 31.0238
1.26967 7.69197 31.0089
1.21373 7.68946 30.9938
1.15784 7.68693 30.9787
1.10199 7.68438 30.9634
1.04618 7.68182 30.9481
0.934703 7.67664 30.917
0.87903 7.67402 30.9013
0.767822 7.66874 30.8695
0.0613472 7.66961 30.9026
-0.104409 7.66088 30.8496
-0.159548 7.65794 30.8318
-0.214629 7.65497 30.8138
-0.430477 7.66153 30.8671
-0.552166 7.69359 30.8847
-0.714214 7.70316 30.9558
-0.769229 7.70002 30.9366
2.54414 7.81695 31.7951
2.4866 7.81485 31.7828
2.414 7.79393 31.6431
2.36001 7.77287 31.6033
2.30614 7.75179 31.5635
2.24185 7.74036 31.4877
2.17781 7.72891 31.4118
2.12099 7.72669 31.3986
1.66316 7.65242 31.1104
1.60695 7.65004 31.0962
1.55078 7.64764 31.0818
1.49465 7.64522 31.0673
1.43856 7.64279 31.0528
1.3825 7.64033 31.0381
1.32649 7.63786 31.0232
1.27052 7.63538 31.0083
1.21459 7.63287 30.9933
1.1587 7.63035 30.9781
1.10285 7.62781 30.9628
1.04705 7.62525 30.9474
0.93558 7.62009 30.9163
0.879911 7.61748 30.9006
0.824288 7.61486 30.8847
0.768712 7.61222 30.8688
0.713183 7.60956 30.8527
0.062316 7.61281 30.9015
-0.103424 7.60411 30.8485
-0.768174 7.64289 30.9353
-0.930947 7.65217 31.0055
-1.10091 7.68072 31.1036
2.54491 7.75943 31.7952
2.30693 7.69458 31.5633
2.24265 7.68326 31.4876
2.17861 7.67192 31.4116
2.12178 7.66971 31.3984
2.06499 7.66747 31.3851
2.00822 7.66522 31.3717
1.32734 7.58126 31.0227
1.21545 7.57629 30.9927
1.15956 7.57377 30.9775
1.10372 7.57124 30.9622
1.04792 7.56869 30.9468
0.992167 7.56613 30.9313
0.936457 7.56355 30.9156
0.880793 7.56095 30.8999
0.825175 7.55833 30.884
0.769603 7.5557 30.868
-0.550123 7.57965 30.8822
-0.712117 7.58888 30.9532
-0.767119 7.58577 30.934
2.48816 7.69982 31.7828
2.1794 7.61494 31.4115
2.12258 7.61273 31.3983
2.00903 7.60825 31.3715
1.94572 7.59699 31.2953
1.88267 7.58571 31.219
1.82993 7.56478 31.1784
1.77733 7.54384 31.1378
1.72105 7.5415 31.1238
1.66481 7.53915 31.1096
1.60861 7.53678 31.0953
1.55245 7.53439 31.0809
1.49633 7.53198 31.0664
1.3842 7.52712 31.0371
1.32819 7.52467 31.0222
1.2163 7.51971 30.9921
1.16042 7.5172 30.9769
1.10459 7.51468 30.9616
1.04879 7.51214 30.9462
0.993041 7.50958 30.9306
0.937336 7.50701 30.915
0.881676 7.50442 30.8992
0.826062 7.50181 30.8833
0.770494 7.49919 30.8673
0.0613344 7.49029 30.8366
-0.10145 7.4906 30.8463
-0.211636 7.48477 30.8104
-0.332879 7.51654 30.8282
-0.494079 7.52572 30.8998
-0.549101 7.52269 30.881
-0.711067 7.53175 30.9519
-0.766062 7.52865 30.9326
-1.16029 7.58172 31.1089
2.48894 7.6423 31.7828
2.41633 7.62202 31.6431
2.30852 7.58018 31.5631
2.23704 7.56014 31.4244
2.18019 7.55795 31.4113
2.12337 7.55575 31.3981
1.55329 7.47777 31.0805
1.49717 7.47537 31.066
1.38504 7.47052 31.0366
1.32904 7.46808 31.0217
1.21716 7.46313 30.9916
1.16129 7.46063 30.9763
1.10545 7.45812 30.961
1.04966 7.45559 30.9455
0.993916 7.45304 30.93
0.938215 7.45047 30.9143
0.882559 7.44789 30.8985
0.82695 7.4453 30.8826
0.771387 7.44268 30.8665
0.0623018 7.43361 30.8356
-0.710016 7.47463 30.9506
-0.765005 7.47154 30.9313
-0.982645 7.47715 30.9816
-1.15919 7.52418 31.1075
2.62249 7.65406 32.0553
2.48972 7.58479 31.7828
2.23783 7.50316 31.4243
2.18099 7.50097 31.4112
2.12417 7.49877 31.3979
2.01063 7.49432 31.3711
1.94732 7.48327 31.2948
-0.492043 7.4118 30.8974
-0.547053 7.40879 30.8786
-0.708965 7.41751 30.9493
-0.763947 7.41444 30.93
-0.818865 7.41135 30.9106
-0.928502 7.40514 30.8715
2.54802 7.52936 31.7953
2.4905 7.52728 31.7829
2.18178 7.444 31.411
2.12497 7.4418 31.3978
1.94813 7.42642 31.2946
1.88508 7.41547 31.2182
1.83237 7.3947 31.1776
1.77602 7.3924 31.1636
1.71971 7.39008 31.1495
1.6673 7.36926 31.1085
1.61111 7.36691 31.0941
1.55496 7.36454 31.0797
1.49885 7.36215 31.0651
1.38674 7.35734 31.0356
1.33075 7.3549 31.0207
1.21888 7.34999 30.9905
1.16301 7.34751 30.9752
1.10719 7.34501 30.9598
1.05141 7.3425 30.9443
0.995668 7.33997 30.9287
0.939975 7.33742 30.913
0.884328 7.33486 30.8971
0.828727 7.33228 30.8812
0.773173 7.32968 30.8651
0.0642388 7.32027 30.8336
-0.0984846 7.32037 30.8431
-0.214217 7.33331 30.8342
-0.263623 7.31172 30.7887
-0.329902 7.34618 30.8249
-0.491024 7.35484 30.8962
-0.546028 7.35186 30.8774
-0.762888 7.35734 30.9287
-0.872644 7.35119 30.8898
2.63204 7.54717 32.1202
2.41866 7.45013 31.6431
2.36141 7.44801 31.6303
2.31091 7.4086 31.5629
2.23942 7.3892 31.4241
2.18258 7.38702 31.4109
2.12576 7.38483 31.3976
1.38759 7.30075 31.0351
1.3316 7.29833 31.0202
1.21974 7.29343 30.9899
1.16388 7.29095 30.9746
1.05228 7.28596 30.9437
0.996545 7.28344 30.9281
0.940856 7.2809 30.9123
0.885214 7.27835 30.8964
0.829617 7.27578 30.8805
0.774068 7.27319 30.8644
-0.761829 7.30026 30.9274
-0.816733 7.2972 30.908
-0.871571 7.29413 30.8884
2.62481 7.48027 32.0558
2.54958 7.41434 31.7955
2.49206 7.41227 31.7829
2.24021 7.33222 31.424
2.18337 7.33005 31.4108
2.12656 7.32786 31.3975
1.94314 7.30424 31.2316
1.88668 7.30198 31.2178
-0.327913 7.23264 30.8227
-0.488984 7.24096 30.8938
-0.543975 7.238 30.875
-0.598903 7.23502 30.856
-0.705805 7.2462 30.9454
-0.815666 7.24014 30.9066
2.49284 7.35476 31.783
2.42021 7.33554 31.6432
2.36297 7.33343 31.6303
2.12736 7.2709 31.3973
1.94394 7.2475 31.2314
1.88749 7.24525 31.2175
1.83107 7.24298 31.2036
1.77468 7.2407 31.1895
1.71833 7.23841 31.1753
1.66591 7.21775 31.1342
1.60968 7.21542 31.1198
1.55748 7.19472 31.0784
1.50138 7.19236 31.0638
1.38929 7.18759 31.0341
1.33331 7.18518 31.0192
1.22147 7.18031 30.9888
1.16561 7.17785 30.9735
1.05403 7.17289 30.9425
0.9983 7.17039 30.9268
0.886986 7.16534 30.8951
0.831399 7.16279 30.8791
0.775858 7.16022 30.863
0.0618347 7.16875 30.8576
-0.106542 7.1873 30.8946
-0.216848 7.18162 30.8583
-0.271913 7.17876 30.84
-0.326918 7.17588 30.8216
-0.487963 7.18402 30.8927
-0.542948 7.18108 30.8738
-0.59787 7.17812 30.8548
-0.706137 7.18063 30.8803
2.63436 7.37308 32.1207
2.42099 7.27825 31.6432
2.36375 7.27615 31.6303
2.30992 7.25553 31.59
2.2418 7.21827 31.4238
2.18496 7.21611 31.4106
2.12816 7.21393 31.3972
1.16647 7.12131 30.9729
0.999179 7.11387 30.9262
0.887874 7.10884 30.8944
0.83229 7.1063 30.8784
-0.486941 7.1271 30.8915
-0.541919 7.12417 30.8726
-0.596835 7.12122 30.8536
-0.705085 7.12366 30.879
2.62713 7.3065 32.0562
2.55192 7.24183 31.7957
2.49441 7.23976 31.7831
2.18576 7.15915 31.4104
2.12896 7.15697 31.3971
1.94555 7.13402 31.231
1.8891 7.13178 31.2171
1.83268 7.12953 31.2031
1.7763 7.12726 31.189
-0.104595 7.07369 30.8926
-0.214878 7.06806 30.8562
-0.269931 7.06522 30.8379
-0.324925 7.06237 30.8194
-0.485918 7.07017 30.8903
-0.540891 7.06726 30.8714
-0.5958 7.06433 30.8523
-0.705427 7.05843 30.8139
2.49519 7.18226 31.7832
2.42255 7.16368 31.6433
2.36531 7.16158 31.6304
1.94635 7.07729 31.2308
1.88991 7.07506 31.2169
1.83349 7.07281 31.2029
1.77712 7.07055 31.1887
1.72078 7.06827 31.1745
1.66447 7.06598 31.1601
1.55198 7.06135 31.1311
1.4958 7.05901 31.1163
1.33587 7.01549 31.0177
1.22405 7.01067 30.9873
1.16821 7.00824 30.9719
1.05665 7.00333 30.9407
1.00094 7.00085 30.925
0.88965 6.99586 30.8931
0.834075 6.99334 30.8771
0.0564274 7.009 30.819
-0.103621 7.01689 30.8916
-0.213892 7.01129 30.8552
-0.26894 7.00846 30.8368
-0.323927 7.00563 30.8183
-0.484895 7.01326 30.8892
-0.539861 7.01036 30.8702
-0.649604 7.00452 30.832
2.62868 7.19066 32.0566
2.42333 7.1064 31.6433
2.3661 7.1043 31.6304
2.30889 7.10219 31.6174
2.24419 7.04737 31.4235
2.18736 7.04522 31.4102
2.13056 7.04306 31.3968
1.94716 7.02055 31.2306
-0.267947 6.95171 30.8357
-0.322929 6.94889 30.8172
-0.483871 6.95635 30.888
-0.593728 6.95057 30.8499
-0.648561 6.94765 30.8307
2.62143 7.12452 31.9921
2.55427 7.06933 31.796
2.49676 7.06727 31.7833
2.18816 6.98827 31.4102
2.13136 6.98611 31.3967
1.94796 6.96383 31.2304
1.89152 6.96161 31.2165
1.83511 6.95937 31.2024
1.77874 6.95712 31.1882
1.72241 6.95486 31.174
1.66611 6.95258 31.1596
-0.10167 6.90331 30.8896
-0.211919 6.89776 30.8531
-0.266954 6.89496 30.8347
-0.32193 6.89216 30.8161
-0.376845 6.88933 30.7975
-0.482846 6.89945 30.8868
2.63826 7.08295 32.1216
2.42489 6.99184 31.6434
2.36766 6.98975 31.6305
1.94877 6.9071 31.2302
1.89233 6.90489 31.2163
1.83592 6.90266 31.2022
1.77956 6.90042 31.188
1.72323 6.89816 31.1737
1.66693 6.89589 31.1593
1.55446 6.8913 31.1301
1.49829 6.88899 31.1153
1.33 6.88195 31.0703
1.17081 6.83866 30.9703
1.00358 6.83136 30.9232
0.892318 6.82642 30.8912
0.836757 6.82393 30.8751
0.0592837 6.83915 30.8163
0.00418595 6.83644 30.7984
-0.100694 6.84652 30.8886
-0.210931 6.841 30.8521
-0.265961 6.83822 30.8336
-0.32093 6.83543 30.8151
-0.375839 6.83262 30.7964
-0.483647 6.83476 30.8222
2.42568 6.93456 31.6435
2.36845 6.93248 31.6305
2.24657 6.87649 31.4234
2.18976 6.87436 31.41
2.13297 6.87221 31.3965
1.94957 6.85038 31.2301
-0.209943 6.78426 30.8511
-0.264967 6.78149 30.8326
-0.31993 6.77871 30.814
-0.374833 6.77591 30.7953
-0.482625 6.77797 30.8211
2.55661 6.89685 31.7963
2.49911 6.8948 31.7836
2.42646 6.87728 31.6435
2.13377 6.81527 31.3964
1.95038 6.79366 31.2299
1.89394 6.79146 31.2159
1.83755 6.78924 31.2018
1.78119 6.78701 31.1875
1.72486 6.78477 31.1732
1.66858 6.78251 31.1587
1.55612 6.77795 31.1294
0.0611907 6.72595 30.8144
0.00610385 6.72327 30.7965
-0.103898 6.71786 30.7603
-0.263972 6.72476 30.8315
-0.31893 6.72199 30.8129
-0.373827 6.71921 30.7942
-0.483435 6.71362 30.7564
2.69869 6.9109 32.1346
2.64059 6.9089 32.1222
2.42724 6.82001 31.6436
2.37002 6.81794 31.6306
1.95118 6.73694 31.2298
1.89475 6.73474 31.2157
1.83836 6.73254 31.2016
1.782 6.73031 31.1873
1.72568 6.72808 31.173
1.6694 6.72583 31.1585
1.49509 6.71159 31.0519
1.33252 6.71203 31.0691
1.164 6.67963 30.9333
1.00169 6.67981 30.9485
0.885733 6.69285 30.9434
0.83009 6.69039 30.9271
0.062145 6.66935 30.8135
0.00706359 6.66669 30.7956
-0.102927 6.66131 30.7594
-0.262977 6.66804 30.8305
-0.37282 6.66252 30.7931
-0.427649 6.65974 30.7743
-1.37655 6.75997 31.1927
2.6253 6.83548 31.9931
2.42802 6.76274 31.6437
2.3708 6.76067 31.6307
2.24205 6.74153 31.4776
2.19216 6.70352 31.4098
2.13538 6.70138 31.3963
1.95199 6.68022 31.2296
1.89556 6.67804 31.2156
1.83917 6.67583 31.2014
1.78282 6.67362 31.1871
0.00802382 6.61011 30.7947
-0.101955 6.60476 30.7584
-0.261982 6.61132 30.8295
-0.371812 6.60583 30.7921
-1.37542 6.70229 31.1913
2.50147 6.72234 31.7839
2.42881 6.70547 31.6438
2.37159 6.7034 31.6307
2.12923 6.63721 31.3336
1.9528 6.62351 31.2295
1.89637 6.62133 31.2154
1.83999 6.61913 31.2012
1.72732 6.6147 31.1725
1.67104 6.61247 31.158
1.49675 6.59848 31.0512
0.064055 6.55618 30.8118
0.00898451 6.55354 30.7938
-0.100984 6.54822 30.7575
-0.26324 6.54738 30.7653
-0.978097 6.59846 31.0163
2.63489 6.72737 32.0582
2.42959 6.6482 31.6439
2.37238 6.64614 31.6308
1.9536 6.5668 31.2293
1.89718 6.56462 31.2152
1.8408 6.56244 31.201
1.78445 6.56024 31.1867
1.72814 6.55802 31.1723
1.67187 6.55579 31.1577
1.49758 6.54193 31.0509
1.32431 6.52796 30.9431
1.15712 6.52096 30.8965
0.995046 6.52093 30.9115
0.828343 6.51368 30.8629
0.0650107 6.4996 30.8109
0.00994564 6.49697 30.7929
-0.100011 6.49168 30.7565
-0.262247 6.49078 30.7643
2.62763 6.66208 31.9938
2.43037 6.59093 31.644
2.37316 6.58888 31.6309
2.24441 6.57039 31.4777
2.19103 6.5505 31.4369
2.13083 6.52354 31.3334
1.95441 6.51009 31.2292
1.89799 6.50792 31.2151
1.84161 6.50574 31.2009
1.78527 6.50355 31.1865
1.72896 6.50134 31.172
0.0659668 6.44303 30.81
0.0109072 6.44041 30.792
-0.0990385 6.43515 30.7556
-0.261253 6.43418 30.7633
2.55483 6.58781 31.8526
2.49724 6.58579 31.8398
2.43116 6.53367 31.6441
2.37395 6.53162 31.631
1.95522 6.45338 31.2291
1.8988 6.45122 31.2149
1.84243 6.44905 31.2007
1.72978 6.44466 31.1718
1.67351 6.44245 31.1572
1.49924 6.42885 31.0503
1.32599 6.41513 30.9423
1.15882 6.40819 30.8957
0.996778 6.40801 30.9105
0.8301 6.40083 30.8618
0.770352 6.39153 30.7828
0.0669232 6.38646 30.8091
0.0118691 6.38386 30.7911
-0.0980654 6.37863 30.7546
-0.152945 6.37599 30.7362
-0.262524 6.37068 30.6991
-0.921825 6.41539 30.9035
2.63723 6.55365 32.0589
2.43194 6.4764 31.6442
2.37474 6.47436 31.6311
1.89962 6.39453 31.2148
1.84324 6.39236 31.2005
1.7306 6.38799 31.1716
1.6683 6.379 31.0946
1.50007 6.37231 31.05
1.32683 6.35872 30.942
1.15967 6.3518 30.8953
0.997644 6.35155 30.91
0.830979 6.3444 30.8612
0.06788 6.3299 30.8083
0.0128314 6.32731 30.7902
-0.0421594 6.32471 30.772
-0.151965 6.31948 30.7353
-0.811185 6.36397 30.9423
2.55637 6.47265 31.8531
2.24676 6.39927 31.4778
2.18987 6.3972 31.4642
2.12967 6.37063 31.3602
2.06976 6.34423 31.2568
1.95683 6.33998 31.2288
1.90043 6.33783 31.2147
1.84406 6.33567 31.2004
1.73142 6.33132 31.1714
1.66912 6.32244 31.0944
0.0688372 6.27334 30.8074
0.0137941 6.27077 30.7893
-0.0411912 6.26818 30.7711
-0.096118 6.26559 30.7528
-0.150986 6.26298 30.7343
-1.15023 6.33983 31.0048
-1.84077 6.44919 31.5256
2.55715 6.41507 31.8533
2.43351 6.36188 31.6445
2.37631 6.35985 31.6313
1.95764 6.28328 31.2287
1.90124 6.28114 31.2145
1.84487 6.27899 31.2002
1.73224 6.27465 31.1712
1.66994 6.26588 31.0942
1.49602 6.25266 30.9871
1.44014 6.25042 30.9719
1.3285 6.24591 30.9413
1.27275 6.24364 30.9258
1.16137 6.23905 30.8944
0.994645 6.23208 30.8466
0.832737 6.23157 30.8601
0.772994 6.22262 30.7811
0.0697947 6.21679 30.8065
0.0147571 6.21423 30.7884
-0.0402226 6.21166 30.7702
-0.0951438 6.20908 30.7518
-0.754199 6.25262 30.9598
-0.918615 6.24433 30.8999
-1.14914 6.28257 31.0036
2.69936 6.42464 32.1936
2.4343 6.30462 31.6446
2.3771 6.30259 31.6314
2.24834 6.2852 31.4779
1.84568 6.22231 31.2001
1.73306 6.21798 31.1711
1.67077 6.20932 31.094
1.49685 6.19623 30.9868
1.44097 6.194 30.9716
1.32935 6.18951 30.9409
1.2736 6.18725 30.9254
1.16223 6.18268 30.894
1.10661 6.18038 30.8782
0.995509 6.17575 30.8461
0.833617 6.17516 30.8596
0.773876 6.16633 30.7806
0.0707525 6.16024 30.8057
-0.698215 6.19828 30.9785
-1.14805 6.22531 31.0023
-1.83842 6.33247 31.5226
2.63229 6.3153 31.9953
2.37789 6.24534 31.6315
2.24913 6.22817 31.478
2.19224 6.22611 31.4644
2.07216 6.1741 31.2567
2.0157 6.172 31.2427
1.95926 6.16989 31.2286
1.90286 6.16777 31.2143
1.8465 6.16563 31.1999
1.73389 6.16132 31.1709
1.67159 6.15277 31.0938
0.0717105 6.1037 30.8049
0.0166839 6.10117 30.7867
-0.0382846 6.09863 30.7684
-0.699947 6.12815 30.849
-1.14697 6.16806 31.001
-1.83724 6.27413 31.5211
2.55947 6.24233 31.854
2.50189 6.24034 31.8411
2.43587 6.19011 31.6449
2.37867 6.18809 31.6316
1.96007 6.1132 31.2285
1.90367 6.11108 31.2142
1.84732 6.10895 31.1998
1.67241 6.09622 31.0936
1.61037 6.08777 31.0163
1.49851 6.08339 30.9862
1.44264 6.08118 30.971
1.33103 6.07672 30.9403
1.27528 6.07448 30.9247
1.16393 6.06995 30.8932
1.10832 6.06767 30.8773
0.997238 6.06308 30.8452
0.830967 6.0561 30.7961
0.775639 6.05375 30.7795
0.720361 6.05139 30.7628
0.0726688 6.04716 30.804
0.0176477 6.04464 30.7858
-0.698909 6.07131 30.8479
-1.14588 6.11082 30.9998
2.63384 6.19972 31.9959
2.43665 6.13285 31.6451
2.37946 6.13084 31.6318
2.2507 6.11411 31.4782
1.67323 6.03967 31.0934
1.61119 6.03134 31.0161
1.49934 6.02697 30.986
1.44347 6.02477 30.9708
1.33187 6.02033 30.9399
1.27613 6.0181 30.9244
1.16478 6.01359 30.8928
1.10918 6.01132 30.8769
0.998103 6.00675 30.8447
0.942636 6.00444 30.8284
0.831844 5.9998 30.7956
0.776521 5.99747 30.7789
0.721248 5.99512 30.7622
-0.751277 6.01811 30.8911
-1.14479 6.05358 30.9985
-1.43182 6.10136 31.2121
-1.83489 6.15745 31.5182
2.56102 6.12718 31.8546
2.50345 6.1252 31.8415
2.25149 6.05708 31.4783
2.19461 6.05504 31.4646
2.13081 6.04679 31.3877
2.07092 6.02126 31.2837
2.01812 6.00191 31.2425
1.96169 5.99982 31.2283
1.9053 5.99772 31.214
1.84895 5.9956 31.1996
1.67406 5.98313 31.0932
1.61202 5.9749 31.0159
1.50017 5.97055 30.9857
1.44431 5.96836 30.9705
1.33271 5.96394 30.9396
1.27697 5.96172 30.924
1.22128 5.95948 30.9083
1.16564 5.95723 30.8925
1.11003 5.95497 30.8765
0.998968 5.95042 30.8443
0.943505 5.94813 30.828
0.832722 5.94351 30.795
0.777404 5.94119 30.7784
0.722135 5.93885 30.7617
0.074586 5.9341 30.8024
0.019576 5.93161 30.7841
-0.0353757 5.92911 30.7658
-0.0958511 5.94397 30.7746
-0.156362 5.95881 30.7832
-0.748944 5.96739 30.9541
-1.14371 5.99635 30.9973
-1.83371 6.09913 31.5168
2.56179 6.06961 31.8548
2.50422 6.06763 31.8418
2.43823 6.01834 31.6454
2.38104 6.01634 31.6321
1.90611 5.94104 31.2139
1.84976 5.93893 31.1995
1.66882 5.92062 31.0306
1.61284 5.91847 31.0157
1.501 5.91414 30.9855
1.44514 5.91196 30.9702
1.33355 5.90756 30.9393
1.27782 5.90534 30.9237
1.22213 5.90312 30.9079
1.16649 5.90088 30.8921
1.11089 5.89863 30.8761
0.999833 5.8941 30.8438
0.944375 5.89182 30.8275
0.8336 5.88722 30.7945
0.778286 5.88491 30.7779
0.723022 5.88258 30.7611
0.0755449 5.87757 30.8015
-0.802725 5.90771 30.933
-0.85749 5.90505 30.9129
-1.14262 5.93913 30.9961
2.70397 6.07598 32.1959
2.30997 5.94505 31.4921
2.25307 5.94303 31.4785
2.19619 5.941 31.4647
2.13936 5.93896 31.4509
1.66964 5.86418 31.0305
1.61366 5.86204 31.0155
1.50183 5.85773 30.9853
1.44598 5.85556 30.97
1.33439 5.85118 30.939
1.27867 5.84897 30.9234
1.22298 5.84675 30.9076
1.16734 5.84453 30.8917
1.11175 5.84229 30.8757
1.0007 5.83778 30.8434
0.945244 5.83551 30.8271
0.834479 5.83094 30.794
0.779169 5.82864 30.7774
-0.20929 5.84319 30.7628
-1.14153 5.88191 30.9948
-1.83136 5.9825 31.5138
2.56334 5.95446 31.8554
2.50578 5.9525 31.8423
2.31076 5.88801 31.4922
2.25385 5.886 31.4786
2.19699 5.88398 31.4648
2.13319 5.87606 31.3879
2.07331 5.85102 31.2837
2.02054 5.83184 31.2424
1.96412 5.82977 31.2282
1.90774 5.82769 31.2138
1.85139 5.8256 31.1993
1.67046 5.80775 31.0303
1.61449 5.80562 31.0153
1.50266 5.80132 30.985
1.44681 5.79916 30.9697
1.391 5.79698 30.9543
1.33523 5.7948 30.9387
1.27951 5.7926 30.9231
1.22383 5.7904 30.9073
1.1682 5.78818 30.8914
1.11261 5.78595 30.8753
1.00156 5.78147 30.843
0.946114 5.77921 30.8266
0.835357 5.77466 30.7936
0.780052 5.77237 30.7768
0.724797 5.77007 30.76
0.0774631 5.76454 30.7999
0.0224698 5.7621 30.7816
-0.0324651 5.75965 30.7632
-0.0873408 5.75719 30.7447
-0.153469 5.78913 30.7807
-0.26311 5.78415 30.743
-1.14044 5.8247 30.9936
-1.83018 5.9242 31.5124
2.56412 5.89689 31.8557
2.50655 5.89493 31.8426
2.44058 5.84659 31.646
2.31154 5.83099 31.4924
2.25464 5.82898 31.4787
1.85221 5.76894 31.1992
1.67128 5.75132 31.0302
1.61531 5.74919 31.0152
1.50349 5.74492 30.9848
1.44765 5.74276 30.9695
1.39184 5.7406 30.954
1.33608 5.73842 30.9384
1.28036 5.73624 30.9227
1.22468 5.73404 30.9069
1.16905 5.73183 30.891
1.11346 5.72962 30.875
1.05792 5.72739 30.8588
1.00243 5.72515 30.8426
0.946984 5.72291 30.8262
0.836236 5.71838 30.7931
0.780935 5.7161 30.7763
0.725684 5.71381 30.7595
-0.316855 5.72514 30.7231
-0.921886 5.76633 30.9452
-0.976589 5.7637 30.9247
-1.829 5.86591 31.511
2.63851 5.85298 31.9978
2.25543 5.77196 31.4788
2.19857 5.76995 31.465
1.61614 5.69277 31.015
1.50432 5.68851 30.9846
1.44848 5.68637 30.9692
1.39268 5.68421 30.9538
1.33692 5.68205 30.9382
1.2812 5.67987 30.9224
1.22553 5.67769 30.9066
1.1699 5.67549 30.8907
1.11432 5.67329 30.8746
1.05879 5.67107 30.8584
1.0033 5.66885 30.8421
0.947854 5.66661 30.8257
0.837115 5.66211 30.7926
0.781818 5.65984 30.7758
-0.261156 5.67112 30.7413
-0.975528 5.70666 30.9236
-1.13826 5.7103 30.9912
-1.82783 5.80762 31.5095
2.78194 5.85727 32.3412
2.56567 5.78175 31.8563
2.31311 5.71693 31.4927
2.25622 5.71494 31.479
2.19936 5.71294 31.4652
2.13556 5.70535 31.3881
2.07202 5.69776 31.311
2.01922 5.67875 31.2696
1.96276 5.67671 31.2553
1.91018 5.65768 31.2136
1.85384 5.65561 31.1991
1.67292 5.63846 31.0299
1.61696 5.63635 31.0148
1.50516 5.63211 30.9844
1.44931 5.62998 30.969
1.39352 5.62783 30.9535
1.33776 5.62568 30.9379
1.28205 5.62351 30.9222
1.22638 5.62134 30.9063
1.17076 5.61915 30.8903
1.11518 5.61696 30.8742
1.05965 5.61475 30.8581
1.00416 5.61254 30.8417
0.948724 5.61032 30.8253
0.837994 5.60584 30.7921
0.782702 5.60358 30.7754
0.72746 5.60132 30.7585
0.074852 5.61209 30.825
0.0142898 5.62676 30.834
-0.0407244 5.62435 30.8155
-0.150573 5.6195 30.7782
-0.260179 5.61461 30.7404
-0.974467 5.64963 30.9225
-1.13717 5.65311 30.99
2.56644 5.72418 31.8567
2.50889 5.72223 31.8435
2.44294 5.67485 31.6466
2.3139 5.65991 31.4929
2.25701 5.65792 31.4791
1.84186 5.58826 31.0742
1.67375 5.58203 31.0297
1.61778 5.57994 31.0147
1.50599 5.57572 30.9842
1.45015 5.57359 30.9688
1.39435 5.57146 30.9533
1.3386 5.56931 30.9376
1.28289 5.56716 30.9219
1.22723 5.56499 30.906
1.17161 5.56282 30.89
1.11604 5.56063 30.8739
1.06051 5.55844 30.8577
1.00503 5.55624 30.8413
0.949595 5.55403 30.8249
0.838873 5.54957 30.7917
0.783585 5.54733 30.7749
0.728348 5.54508 30.758
-0.419298 5.56157 30.8089
-1.82547 5.69107 31.5067
2.56721 5.66661 31.857
2.31469 5.60288 31.493
2.2578 5.6009 31.4793
2.20094 5.59891 31.4654
2.13714 5.59155 31.3883
2.0736 5.58418 31.3111
1.45098 5.51721 30.9686
1.39519 5.51508 30.953
1.33944 5.51295 30.9374
1.28374 5.5108 30.9216
1.22808 5.50865 30.9057
1.17246 5.50649 30.8897
1.11689 5.50431 30.8736
1.06137 5.50213 30.8573
1.00589 5.49994 30.841
0.950465 5.49774 30.8245
0.784469 5.49108 30.7744
-0.148643 5.50643 30.7766
-0.258225 5.50161 30.7387
-0.418297 5.50491 30.808
-1.08031 5.54134 31.0085
-1.82429 5.6328 31.5053
2.56799 5.60904 31.8573
2.31547 5.54586 31.4932
2.25859 5.54389 31.4795
2.20173 5.5419 31.4656
2.13793 5.53465 31.3885
2.07439 5.52739 31.3112
2.01786 5.52538 31.297
1.96517 5.50654 31.2553
1.91262 5.48769 31.2136
1.84989 5.4805 31.1365
1.67539 5.46919 31.0295
1.61943 5.46711 31.0144
1.56352 5.46502 30.9992
1.50765 5.46293 30.9838
1.45182 5.46082 30.9684
1.39603 5.45871 30.9528
1.34029 5.45658 30.9371
1.28459 5.45445 30.9213
1.22893 5.45231 30.9054
1.11775 5.44799 30.8732
1.06223 5.44582 30.857
1.00676 5.44364 30.8406
0.951335 5.44145 30.8241
0.840631 5.43705 30.7908
0.785352 5.43483 30.7739
0.730124 5.43261 30.757
0.0721924 5.45938 30.8503
-0.0378617 5.45466 30.8132
-0.147677 5.44991 30.7758
-0.257248 5.44512 30.7378
-0.417295 5.44825 30.8071
-1.07922 5.48415 31.0074
-1.36574 5.51656 31.0889
-1.5929 5.54539 31.2953
2.71012 5.61111 32.1993
2.56876 5.55147 31.8577
2.31626 5.48884 31.4934
2.25937 5.48687 31.4796
2.20252 5.4849 31.4657
2.14571 5.48291 31.4517
1.67621 5.41277 31.0294
1.62026 5.4107 31.0143
1.56435 5.40862 30.999
1.50848 5.40654 30.9837
1.45265 5.40444 30.9682
1.39687 5.40234 30.9526
1.34113 5.40022 30.9369
1.28543 5.3981 30.9211
1.22978 5.39597 30.9051
1.11861 5.39168 30.8729
1.0631 5.38952 30.8566
1.00763 5.38735 30.8402
0.952206 5.38517 30.8237
0.84151 5.38079 30.7903
0.786236 5.37859 30.7735
-0.256271 5.38863 30.737
-0.416294 5.3916 30.8062
-0.525668 5.38675 30.767
-1.36463 5.45915 31.0877
-1.58452 5.47009 31.2649
2.56954 5.4939 31.858
2.31705 5.43182 31.4936
2.26016 5.42986 31.4798
2.20331 5.42789 31.4659
2.13254 5.41581 31.3256
2.07597 5.41382 31.3114
-0.145745 5.33687 30.7742
-0.255293 5.33214 30.7362
-0.415293 5.33496 30.8053
-1.13173 5.36725 30.9841
-1.19984 5.399 31.0194
-1.36352 5.40174 31.0865
2.78657 5.50731 32.3442
2.71166 5.49489 32.2003
2.57031 5.43634 31.8584
2.51277 5.43442 31.8451
2.20411 5.37088 31.466
2.14031 5.36397 31.3889
2.07677 5.35704 31.3115
2.02024 5.35505 31.2972
1.91118 5.33439 31.2409
1.84843 5.32746 31.1634
1.78986 5.30401 31.0592
1.67785 5.29994 31.0292
1.62191 5.29789 31.014
1.566 5.29583 30.9987
1.51014 5.29377 30.9833
1.45432 5.29169 30.9678
1.39855 5.28961 30.9522
1.34281 5.28751 30.9364
1.28712 5.28541 30.9206
1.23148 5.2833 30.9046
1.12033 5.27906 30.8723
1.06482 5.27692 30.8559
1.00936 5.27478 30.8395
0.953947 5.27262 30.8229
0.898583 5.27046 30.8062
0.843268 5.26829 30.7895
0.788003 5.26611 30.7726
0.732788 5.26392 30.7555
-0.0349984 5.28502 30.811
-0.144779 5.28036 30.7734
-0.254316 5.27567 30.7353
-0.590427 5.30481 30.8004
-1.18523 5.30758 30.9618
2.51355 5.37686 31.8455
2.44076 5.36497 31.7038
2.31862 5.31778 31.4941
2.26174 5.31583 31.4802
2.2049 5.31388 31.4662
1.67867 5.24352 31.0291
1.62273 5.24149 31.0139
1.56683 5.23944 30.9986
1.51097 5.23738 30.9832
1.45516 5.23532 30.9676
1.39939 5.23324 30.952
1.34366 5.23116 30.9362
1.28797 5.22907 30.9203
1.23233 5.22697 30.9043
1.12118 5.22275 30.8719
1.06568 5.22063 30.8556
1.01023 5.21849 30.8391
0.954817 5.21635 30.8225
0.899458 5.2142 30.8059
0.844147 5.21204 30.789
0.788887 5.20988 30.7721
-0.253338 5.21919 30.7345
-0.41329 5.22168 30.8035
-0.522626 5.21693 30.7642
-0.58331 5.23133 30.7719
-0.644023 5.24572 30.7795
2.63889 5.36676 32.0578
2.57186 5.3212 31.8592
2.3194 5.26076 31.4943
2.26253 5.25882 31.4804
2.20569 5.25688 31.4664
2.1349 5.24544 31.3261
2.07835 5.24348 31.3118
2.02183 5.24151 31.2974
-0.0330895 5.17195 30.8095
-0.252361 5.16272 30.7337
-0.307023 5.1604 30.7144
-0.412288 5.16505 30.8026
-0.69754 5.18667 30.7585
2.78889 5.33232 32.3458
2.57264 5.26364 31.8596
2.5151 5.26174 31.8462
2.26332 5.20181 31.4806
2.20648 5.19987 31.4666
2.13569 5.18865 31.3262
2.07914 5.1867 31.3119
2.02262 5.18474 31.2975
1.84835 5.13671 31.074
1.7923 5.13472 31.0591
1.73629 5.13272 31.0441
1.68031 5.1307 31.029
1.62438 5.12869 31.0137
1.56849 5.12666 30.9984
1.51264 5.12462 30.9829
1.45683 5.12258 30.9673
1.40106 5.12053 30.9516
1.28966 5.1164 30.9199
1.23403 5.11432 30.9038
1.1229 5.11015 30.8714
1.0674 5.10804 30.855
0.956558 5.10382 30.8218
0.901207 5.10169 30.8051
0.845905 5.09956 30.7882
0.790653 5.09742 30.7713
0.735452 5.09527 30.7542
0.0778527 5.11995 30.8461
-0.032135 5.11542 30.8088
-0.251383 5.10626 30.7329
-0.30604 5.10395 30.7136
-0.696524 5.13003 30.7576
2.44309 5.19295 31.7048
2.37788 5.14864 31.5086
2.32097 5.14673 31.4948
2.26411 5.1448 31.4809
2.20727 5.14287 31.4668
1.56931 5.07027 30.9983
1.51347 5.06825 30.9828
1.45766 5.06621 30.9672
1.4019 5.06417 30.9514
1.29051 5.06007 30.9196
1.23488 5.058 30.9036
1.12376 5.05385 30.8711
1.06827 5.05176 30.8547
-0.0365481 5.05 30.6817
-0.195692 5.05209 30.7513
-0.250406 5.0498 30.7321
-0.305056 5.04751 30.7128
-0.410286 5.05181 30.8008
-0.531768 5.08043 30.8167
2.57419 5.14851 31.8604
2.51665 5.14662 31.847
2.32176 5.08971 31.495
2.26489 5.0878 31.4811
2.20806 5.08587 31.467
2.13727 5.07508 31.3266
2.08072 5.07315 31.3122
2.02421 5.0712 31.2978
-0.0355991 4.99369 30.681
-0.19472 4.99561 30.7505
-0.249428 4.99335 30.7313
-0.304073 4.99107 30.712
-0.801052 5.02093 30.8434
2.71627 5.14625 32.2034
2.57496 5.09094 31.8608
2.13806 5.0183 31.3268
2.08151 5.01637 31.3124
2.02501 5.01443 31.2979
1.84685 4.9837 31.1011
1.79076 4.98174 31.0861
1.73874 4.96347 31.044
1.68277 4.96149 31.0288
1.62685 4.9595 31.0135
1.57097 4.95751 30.9981
1.51513 4.9555 30.9826
1.45933 4.95349 30.9669
1.40358 4.95147 30.9511
1.2922 4.94741 30.9192
1.23658 4.94537 30.9031
1.12547 4.94126 30.8705
1.06999 4.93919 30.8541
0.959168 4.93504 30.8208
0.90383 4.93296 30.804
0.848541 4.93086 30.7871
0.793303 4.92876 30.77
0.738116 4.92665 30.7529
-0.0346501 4.93738 30.6804
-0.584408 4.96477 30.795
-0.745428 4.96647 30.8629
-0.800017 4.96413 30.8424
2.44541 5.02092 31.7059
2.38023 4.97757 31.5095
2.32333 4.97568 31.4956
2.26647 4.97378 31.4816
2.13885 4.96152 31.327
1.5718 4.90112 30.998
1.46017 4.89713 30.9668
1.40441 4.89512 30.951
1.29304 4.89108 30.9191
1.23743 4.88905 30.9029
1.07085 4.88292 30.8538
-0.0337012 4.88108 30.6797
-0.192778 4.88269 30.749
-0.247474 4.88045 30.7298
-0.302106 4.87822 30.7104
-0.528777 4.9104 30.8141
-0.583405 4.90811 30.7941
-0.798982 4.90734 30.8415
-1.64364 4.98191 31.2894
2.57651 4.97581 31.8617
2.26726 4.91678 31.4818
2.13963 4.90473 31.3272
2.0831 4.90282 31.3128
2.02659 4.9009 31.2982
-0.0327524 4.82479 30.679
-0.191807 4.82623 30.7483
-0.797947 4.85055 30.8405
-0.852453 4.84825 30.82
-0.919792 4.87897 30.8546
-1.6425 4.92412 31.2882
2.14042 4.84795 31.3274
2.08389 4.84605 31.313
2.02739 4.84414 31.2984
1.84531 4.8304 31.1284
1.78918 4.82847 31.1133
1.73714 4.81038 31.0711
1.68114 4.80843 31.0559
1.62932 4.79034 31.0134
1.57345 4.78837 30.9979
1.46183 4.78442 30.9666
1.40609 4.78243 30.9507
1.29473 4.77844 30.9187
1.23912 4.77643 30.9025
1.07257 4.77037 30.8533
0.961776 4.7663 30.8199
0.901675 4.78039 30.83
0.791079 4.77628 30.7959
0.730936 4.79035 30.8057
-0.0318037 4.76849 30.6783
-0.581399 4.79482 30.7924
-0.635948 4.79257 30.7723
-1.36644 4.86146 31.1317
2.44773 4.8489 31.707
2.32569 4.80464 31.4965
2.26883 4.80277 31.4824
2.14121 4.79117 31.3276
2.08468 4.78928 31.3132
-0.0308551 4.71221 30.6777
-0.189865 4.71333 30.7468
-0.299158 4.70896 30.7081
-0.525788 4.74041 30.8116
-0.580397 4.73818 30.7916
-0.634938 4.73595 30.7714
-1.02527 4.76865 30.9407
-1.18798 4.76971 31.0074
2.64578 4.84576 32.0624
2.57883 4.80312 31.8631
2.52131 4.80127 31.8495
2.142 4.73439 31.3278
2.08547 4.73251 31.3134
2.02897 4.73062 31.2988
-0.0299067 4.65592 30.677
-0.188894 4.65689 30.7461
-0.633929 4.67933 30.7706
-1.02422 4.71164 30.9397
-1.07874 4.70936 30.9185
-1.1869 4.71253 31.0063
2.7893 4.8405 32.409
2.72087 4.79759 32.2068
2.52208 4.74372 31.85
2.44927 4.73422 31.7079
2.14279 4.67762 31.3281
2.08626 4.67574 31.3136
2.02977 4.67386 31.299
1.84771 4.66082 31.1287
1.79159 4.65892 31.1136
1.73957 4.64102 31.0713
1.68358 4.6391 31.0559
1.62763 4.63717 31.0405
1.57172 4.63524 31.0249
1.4086 4.61341 30.9504
1.23716 4.62351 30.9291
1.0705 4.61756 30.8797
0.899478 4.62755 30.8563
0.788811 4.62351 30.822
0.72939 4.61788 30.7422
-0.578391 4.62492 30.7899
-0.63292 4.62272 30.7697
-0.79381 4.62345 30.8368
-1.18583 4.65537 31.0053
2.72164 4.73948 32.2074
2.45004 4.67688 31.7083
2.32804 4.63361 31.4974
2.27119 4.63176 31.4833
2.14357 4.62084 31.3283
2.08705 4.61897 31.3138
2.03056 4.6171 31.2992
-0.0280104 4.54337 30.6758
-0.186953 4.54401 30.7447
-0.29621 4.53975 30.7058
-0.577389 4.56829 30.7891
-0.631912 4.56612 30.7689
-1.18475 4.59821 31.0042
2.64807 4.67209 32.0641
2.58114 4.63042 31.8645
2.27198 4.57476 31.4836
2.14436 4.56406 31.3286
2.08784 4.5622 31.314
2.02462 4.55687 31.2365
1.8493 4.54778 31.129
0.735299 4.50892 30.8041
0.0823586 4.49126 30.7129
0.0276178 4.48918 30.6941
-0.0270626 4.4871 30.6751
-0.576387 4.51167 30.7883
-0.630903 4.50952 30.7681
-0.791742 4.50993 30.835
-0.846207 4.50775 30.8143
2.72317 4.62326 32.2086
2.45159 4.5622 31.7092
2.14515 4.50729 31.3289
2.08863 4.50544 31.3143
2.02541 4.50021 31.2368
1.8501 4.49126 31.1291
1.79399 4.48938 31.1139
1.73791 4.4875 31.0987
1.68188 4.48561 31.0833
1.62589 4.48372 31.0678
1.56994 4.48182 31.0521
1.39573 4.45368 30.8526
1.23001 4.46699 30.8933
1.06356 4.46116 30.8436
0.902055 4.45858 30.8555
0.732 4.44935 30.7412
-0.415265 4.45473 30.7198
-0.575385 4.45506 30.7875
-0.629895 4.45292 30.7672
2.64959 4.55631 32.0653
2.45236 4.50486 31.7096
2.38015 4.49628 31.5679
2.32317 4.49447 31.5538
2.27355 4.46075 31.4843
2.14593 4.45051 31.3291
2.08942 4.44867 31.3146
2.0262 4.44356 31.237
1.96323 4.43845 31.1593
0.0842313 4.37866 30.7118
0.0295016 4.37662 30.6929
-0.0251676 4.37457 30.6739
-0.30513 4.40246 30.7586
-0.414287 4.39828 30.7191
-0.574383 4.39845 30.7867
-0.628886 4.39633 30.7664
2.65036 4.49842 32.0659
2.58346 4.45773 31.8661
2.52595 4.45593 31.8524
2.14672 4.39374 31.3294
2.09021 4.3919 31.3148
2.02699 4.38691 31.2372
1.96402 4.38191 31.1595
1.90784 4.38007 31.1445
1.85169 4.37822 31.1294
1.79558 4.37636 31.1142
0.737915 4.34009 30.8032
0.0851673 4.32237 30.7112
0.030443 4.32034 30.6923
-0.573382 4.34184 30.7859
-0.627879 4.33975 30.7656
-0.788642 4.33969 30.8323
-0.849567 4.35361 30.8394
-0.910518 4.36752 30.8464
2.72547 4.44892 32.2106
2.4539 4.39019 31.7106
2.09099 4.33514 31.3151
2.02777 4.33026 31.2375
1.96481 4.32537 31.1597
1.90863 4.32354 31.1447
1.85249 4.3217 31.1296
1.79638 4.31985 31.1144
1.74032 4.318 31.099
1.57238 4.31242 31.0523
1.3982 4.28516 30.8525
1.22734 4.29511 30.8304
1.06126 4.28941 30.7806
0.90463 4.28964 30.8549
0.734609 4.28085 30.7403
-0.303199 4.28949 30.7573
-0.357798 4.28744 30.7375
-0.412332 4.28539 30.7177
2.65188 4.38263 32.0671
2.45467 4.33285 31.7111
2.38245 4.32492 31.5692
2.33274 4.29156 31.4996
2.2759 4.28975 31.4854
2.20483 4.282 31.3446
2.14829 4.28019 31.33
2.09178 4.27837 31.3154
2.02856 4.2736 31.2377
1.9656 4.26883 31.1599
0.0870383 4.20979 30.7101
0.0323251 4.2078 30.6912
-0.0223273 4.2058 30.6721
-0.0769182 4.2038 30.653
-0.302234 4.23302 30.7566
-0.356827 4.23098 30.7368
-0.411355 4.22895 30.717
-0.908459 4.25392 30.8447
4.67247 4.52176 33.5412
2.65264 4.32474 32.0678
2.5789 4.31683 31.9241
2.45544 4.27551 31.7116
2.20562 4.22521 31.3449
2.14908 4.22341 31.3304
2.09257 4.22161 31.3157
2.02935 4.21695 31.238
1.96639 4.2123 31.1602
1.91021 4.21048 31.1451
1.85408 4.20867 31.13
1.79798 4.20684 31.1147
1.74192 4.20501 31.0993
1.574 4.1995 31.0524
1.06294 4.17713 30.7803
0.906346 4.17702 30.8545
0.736346 4.16853 30.7398
-0.355856 4.17453 30.7362
-0.410378 4.17251 30.7163
-0.679265 4.16798 30.7428
-0.85298 4.1992 30.8648
-0.90743 4.19713 30.8438
2.72776 4.27458 32.2126
2.45621 4.21817 31.7121
2.38399 4.21068 31.5701
2.09336 4.16485 31.316
2.03014 4.16031 31.2383
1.96718 4.15576 31.1604
1.91101 4.15396 31.1453
1.85487 4.15215 31.1302
1.79878 4.15034 31.1149
1.74272 4.14852 31.0995
1.56899 4.14033 30.9899
1.39629 4.13212 30.8793
1.22983 4.12657 30.8302
1.17443 4.12472 30.8137
1.06378 4.12099 30.7802
0.907203 4.12072 30.8543
0.737214 4.11237 30.7395
-0.354886 4.11808 30.7355
-0.409401 4.11608 30.7156
-0.46385 4.11408 30.6956
-1.40795 4.17041 31.0971
2.45698 4.16083 31.7126
2.38476 4.15356 31.5706
2.3278 4.15179 31.5564
2.15065 4.10987 31.331
2.09415 4.10809 31.3163
2.03093 4.10366 31.2386
1.96797 4.09923 31.1607
1.9118 4.09743 31.1456
1.85567 4.09564 31.1304
0.738082 4.05621 30.7393
0.0898421 4.04096 30.7086
0.0351455 4.03902 30.6896
-0.0855135 4.06625 30.7057
-0.353916 4.06164 30.7349
-0.408425 4.05966 30.7149
-0.462868 4.05768 30.6949
-0.905373 4.08356 30.8421
-1.40686 4.11306 31.0961
4.69038 4.31268 33.554
4.34126 4.38973 34.0975
2.65493 4.15106 32.0697
2.53058 4.11057 31.8557
2.45775 4.10349 31.7131
2.20796 4.05487 31.346
2.15143 4.0531 31.3314
2.09493 4.05132 31.3166
2.03172 4.04701 31.2388
1.96876 4.04269 31.1609
1.91259 4.04091 31.1458
1.85646 4.03912 31.1306
1.80037 4.03733 31.1153
1.74433 4.03554 31.0998
1.06546 4.00872 30.78
0.908916 4.00811 30.854
0.734762 3.9976 30.6764
-0.407449 4.00324 30.7143
-0.461886 4.00127 30.6942
-0.676227 3.99835 30.7404
-0.904344 4.02679 30.8413
-1.40577 4.05572 31.0951
4.34202 4.32885 34.0992
2.45852 4.04615 31.7137
2.38629 4.03931 31.5716
2.32934 4.03756 31.5573
2.0325 3.99036 31.2392
1.96954 3.98616 31.1612
1.91338 3.98439 31.1461
1.85726 3.98261 31.1308
1.80117 3.98083 31.1155
1.74513 3.97905 31.1
1.56559 3.96888 30.9276
1.50993 3.96708 30.9116
1.39874 3.96348 30.8794
1.34322 3.96167 30.8631
1.23231 3.95805 30.8301
1.17693 3.95623 30.8135
1.0663 3.95259 30.7799
1.01106 3.95076 30.7629
0.905253 3.94945 30.7912
0.735627 3.94156 30.6762
-0.192771 3.94977 30.6657
-0.351976 3.94876 30.7336
-0.406473 3.94682 30.7136
-0.460904 3.94488 30.6935
-0.903317 3.97001 30.8405
2.65645 4.03526 32.0711
2.45929 3.9888 31.7142
2.38706 3.98219 31.5721
2.33011 3.98045 31.5578
2.27319 3.97871 31.5434
2.20953 3.94131 31.3468
2.153 3.93956 31.3321
2.0965 3.9378 31.3173
2.03329 3.93371 31.2395
1.97033 3.92963 31.1615
1.91417 3.92787 31.1463
1.85805 3.9261 31.1311
0.901587 3.891 30.7284
0.736492 3.88552 30.676
0.0926424 3.87216 30.7071
0.0323126 3.88568 30.7154
-0.0827061 3.8973 30.7041
-0.191824 3.8935 30.6652
-0.351007 3.89233 30.733
-0.405498 3.89041 30.713
-0.902289 3.91325 30.8397
-1.40358 3.94105 31.0931
4.70494 4.13584 33.6273
2.65721 3.97737 32.0718
2.58345 3.97078 31.9279
2.46006 3.93146 31.7148
2.15378 3.88279 31.3325
2.09729 3.88104 31.3177
2.03408 3.87707 31.2398
1.97112 3.87309 31.1618
1.91496 3.87134 31.1466
1.85884 3.86959 31.1313
1.80276 3.86783 31.1159
1.74673 3.86607 31.1004
1.5672 3.85638 30.9278
1.51155 3.85461 30.9118
1.40038 3.85106 30.8795
1.34486 3.84928 30.8631
1.23397 3.84571 30.8301
1.17859 3.84392 30.8134
1.06798 3.84033 30.7797
1.01275 3.83853 30.7627
0.902438 3.83492 30.7283
0.737357 3.82948 30.6758
-0.350039 3.8359 30.7324
-0.404523 3.834 30.7123
-0.458942 3.83209 30.6922
-0.685869 3.85977 30.7935
-1.40249 3.88372 31.0921
2.46082 3.87412 31.7153
2.38859 3.86795 31.5732
2.03486 3.82042 31.2401
1.97191 3.81656 31.1621
1.91575 3.81482 31.1469
1.85963 3.81308 31.1316
1.80356 3.81133 31.1162
1.74752 3.80958 31.1006
1.568 3.80014 30.928
1.51235 3.79838 30.9119
1.40119 3.79486 30.8796
1.34568 3.79309 30.8632
1.23479 3.78954 30.8301
1.17942 3.78777 30.8134
1.06882 3.7842 30.7796
1.01359 3.78242 30.7626
0.903289 3.77884 30.7281
0.848214 3.77704 30.7107
0.738221 3.77344 30.6756
-0.0808363 3.78468 30.7031
-0.189932 3.78096 30.6641
-0.349071 3.77947 30.7318
-0.403549 3.77759 30.7117
-0.457961 3.77571 30.6915
-1.12978 3.82744 30.9382
2.65872 3.86157 32.0732
2.33241 3.80911 31.5593
2.2755 3.8074 31.5449
2.21186 3.77097 31.348
2.15534 3.76925 31.3333
2.09886 3.76752 31.3184
2.02888 3.76176 31.1775
1.97269 3.76003 31.1624
1.91654 3.7583 31.1472
1.86043 3.75657 31.1319
1.80435 3.75484 31.1164
1.74216 3.7511 31.0382
1.06966 3.72808 30.7796
1.01443 3.72631 30.7625
0.90414 3.72276 30.728
0.849069 3.72098 30.7106
0.739085 3.71741 30.6754
0.0841942 3.73389 30.7605
0.0294335 3.73206 30.7413
-0.079902 3.72838 30.7027
-0.134476 3.72654 30.6832
-0.188986 3.72469 30.6635
-0.348103 3.72305 30.7312
2.65948 3.80367 32.074
2.46236 3.75944 31.7165
2.09964 3.71076 31.3188
2.02967 3.70522 31.1779
1.97348 3.7035 31.1627
1.91733 3.70178 31.1475
1.80515 3.69834 31.1167
1.74296 3.69472 31.0384
1.68102 3.69111 30.96
1.56961 3.68765 30.9283
1.51397 3.68592 30.9122
1.40282 3.68245 30.8797
1.34732 3.68071 30.8633
1.29186 3.67896 30.8468
1.23644 3.67721 30.8301
1.18108 3.67546 30.8134
1.07049 3.67196 30.7795
1.01528 3.6702 30.7624
0.90499 3.66668 30.7279
0.849924 3.66491 30.7104
0.739948 3.66137 30.6752
-0.347136 3.66664 30.7306
-0.456001 3.66295 30.6903
-0.564597 3.65926 30.6495
-0.682884 3.68991 30.7914
-0.791567 3.68618 30.7496
-1.29035 3.71168 31.0019
2.66024 3.74577 32.0747
2.52035 3.70379 31.7313
2.46312 3.70209 31.7171
2.39088 3.69658 31.5748
2.33394 3.69489 31.5604
2.03045 3.64868 31.1782
1.97426 3.64697 31.1631
1.91812 3.64526 31.1478
1.86201 3.64355 31.1324
1.80594 3.64184 31.1169
1.74375 3.63834 31.0387
1.68182 3.63484 30.9603
1.57041 3.63141 30.9284
1.51478 3.62969 30.9123
1.40364 3.62624 30.8798
1.34813 3.62452 30.8634
1.29268 3.62279 30.8468
1.23727 3.62105 30.8302
1.18191 3.61932 30.8134
1.07133 3.61584 30.7795
1.01612 3.6141 30.7624
0.905839 3.6106 30.7278
0.850778 3.60885 30.7103
0.740811 3.60534 30.675
0.0312785 3.61939 30.7405
-0.0780348 3.61578 30.7017
-0.132597 3.61398 30.6822
-0.187096 3.61217 30.6625
-0.346169 3.61023 30.73
-0.79056 3.62961 30.7489
-1.12666 3.65649 30.9358
2.661 3.68786 32.0755
2.39165 3.63946 31.5754
2.33471 3.63777 31.561
2.27781 3.63608 31.5464
2.2142 3.60063 31.3494
2.15769 3.59894 31.3346
2.10121 3.59724 31.3196
2.03123 3.59213 31.1786
1.97505 3.59044 31.1634
1.9189 3.58875 31.1481
1.80674 3.58535 31.1172
1.75072 3.58364 31.1016
1.07217 3.55972 30.7795
1.01696 3.55799 30.7623
0.906689 3.55453 30.7277
0.851631 3.55279 30.7102
0.741673 3.54932 30.6749
0.0869445 3.56484 30.7593
0.0322003 3.56306 30.7401
-0.0771019 3.55949 30.7013
-0.131658 3.55771 30.6817
-0.186151 3.55592 30.662
-0.680897 3.5767 30.7901
-0.789553 3.57305 30.7482
-1.28822 3.59742 31.0002
2.58799 3.62471 31.9321
2.52188 3.58908 31.7326
2.46465 3.58741 31.7184
2.39241 3.58233 31.576
2.10199 3.54048 31.3201
2.03201 3.53559 31.179
1.97583 3.53391 31.1638
1.91969 3.53223 31.1485
1.80753 3.52885 31.1175
1.74534 3.52558 31.0392
1.68341 3.52232 30.9607
1.57202 3.51893 30.9288
1.51639 3.51724 30.9127
1.4608 3.51554 30.8964
1.40526 3.51384 30.88
1.34977 3.51214 30.8636
1.29432 3.51044 30.847
1.23892 3.50873 30.8303
1.18357 3.50703 30.8134
1.073 3.5036 30.7794
1.0178 3.50189 30.7623
0.907537 3.49846 30.7276
0.852484 3.49674 30.7101
0.742535 3.49329 30.6747
-0.0761694 3.5032 30.7008
-0.13072 3.50144 30.6812
-0.185207 3.49967 30.6615
-0.344237 3.49742 30.7289
-0.453066 3.49385 30.6885
-0.574065 3.52052 30.7023
-0.679904 3.52009 30.7895
-0.788547 3.51649 30.7475
-1.12457 3.54255 30.9342
2.46542 3.53006 31.719
2.39318 3.52521 31.5766
2.33624 3.52354 31.5621
2.03279 3.47905 31.1794
1.97662 3.47738 31.1642
1.92048 3.47571 31.1488
1.80832 3.47236 31.1178
1.74614 3.4692 31.0394
1.68421 3.46605 30.9609
1.57282 3.4627 30.929
1.5172 3.46101 30.9128
1.46161 3.45933 30.8966
1.40608 3.45764 30.8802
1.35058 3.45596 30.8637
1.29514 3.45427 30.8471
1.23974 3.45258 30.8303
1.18439 3.45088 30.8135
1.12909 3.44919 30.7965
1.07384 3.44749 30.7794
1.01864 3.44579 30.7623
0.908386 3.44239 30.7275
0.853337 3.44068 30.71
0.743397 3.43727 30.6746
0.0340423 3.45041 30.7393
-0.0752375 3.44692 30.7004
-0.129783 3.44517 30.6808
-0.184264 3.44342 30.6611
-0.238681 3.44167 30.6412
-0.733262 3.46172 30.7679
-0.787541 3.45994 30.7468
-1.00259 3.45572 30.7906
-1.12353 3.48558 30.9334
4.15979 3.632 33.1535
2.66326 3.51415 32.0778
2.39394 3.46809 31.5772
2.33701 3.46643 31.5627
2.21275 3.44523 31.3783
2.1562 3.44357 31.3634
2.10356 3.42697 31.3209
2.03357 3.42251 31.1798
1.9774 3.42086 31.1645
1.92127 3.41919 31.1492
1.74693 3.41283 31.0397
1.685 3.40979 30.9612
1.46242 3.40312 30.8967
1.40689 3.40145 30.8803
1.3514 3.39977 30.8638
1.29596 3.3981 30.8472
1.24057 3.39642 30.8304
1.18522 3.39474 30.8135
1.12992 3.39306 30.7965
1.07468 3.39138 30.7794
1.01948 3.38969 30.7622
0.909233 3.38632 30.7275
0.854189 3.38463 30.7099
0.744258 3.38125 30.6745
0.0896905 3.39582 30.7582
0.0349626 3.39409 30.7389
-0.0743061 3.39064 30.7
-0.128846 3.38891 30.6804
-0.183321 3.38718 30.6606
-0.572114 3.40768 30.7011
-0.786536 3.40339 30.7462
2.66402 3.45624 32.0786
2.52416 3.41702 31.7346
2.46695 3.41537 31.7203
2.3947 3.41096 31.5778
2.03435 3.36598 31.1802
1.97818 3.36433 31.1649
1.92205 3.36268 31.1496
1.74772 3.35645 31.04
1.6858 3.35353 30.9615
1.63009 3.35188 30.9455
1.57443 3.35022 30.9294
1.51881 3.34857 30.9132
1.46323 3.34691 30.8969
1.4077 3.34525 30.8805
1.35222 3.34359 30.8639
1.29678 3.34193 30.8473
1.24139 3.34027 30.8305
1.18605 3.3386 30.8136
1.13075 3.33694 30.7966
1.07551 3.33527 30.7795
1.02032 3.3336 30.7622
0.910081 3.33026 30.7274
0.85504 3.32858 30.7098
0.745118 3.32523 30.6743
-0.127909 3.33265 30.6799
-0.182379 3.33094 30.6601
-0.236784 3.32923 30.6403
-0.450135 3.32479 30.6867
-0.571139 3.35126 30.7006
-0.731265 3.34858 30.7666
2.66477 3.39833 32.0794
2.46771 3.35802 31.721
2.39546 3.35383 31.5784
2.33853 3.3522 31.5639
1.97897 3.3078 31.1653
1.92284 3.30616 31.1499
1.74234 3.29891 30.9776
1.68659 3.29727 30.9617
1.63089 3.29563 30.9457
1.57523 3.29399 30.9296
1.51961 3.29235 30.9134
1.46404 3.2907 30.8971
1.40851 3.28906 30.8806
1.35303 3.28741 30.8641
1.2976 3.28576 30.8474
1.24221 3.28411 30.8306
1.18687 3.28246 30.8137
1.13158 3.28081 30.7966
1.07634 3.27916 30.7795
1.02115 3.2775 30.7622
0.966015 3.27585 30.7449
0.910927 3.27419 30.7274
0.0915184 3.28315 30.7576
0.0340315 3.28034 30.6749
-0.126973 3.2764 30.6795
-0.181437 3.27471 30.6597
-0.235836 3.27302 30.6398
-0.730268 3.29202 30.766
-1.01287 3.3158 30.8441
2.66552 3.34042 32.0802
2.39622 3.29671 31.579
2.3393 3.29508 31.5645
2.2679 3.29114 31.4223
2.21506 3.27473 31.3799
2.16236 3.25832 31.3374
2.03591 3.2529 31.1811
1.97975 3.25127 31.1658
1.92362 3.24964 31.1503
1.74313 3.24264 30.9779
1.68738 3.24101 30.962
1.63168 3.23938 30.946
1.57603 3.23776 30.9299
1.52041 3.23613 30.9136
1.46484 3.2345 30.8973
1.40932 3.23286 30.8808
1.35385 3.23123 30.8642
1.29842 3.2296 30.8475
1.24303 3.22796 30.8307
1.1877 3.22633 30.8137
1.13241 3.22469 30.7967
1.07718 3.22305 30.7795
1.02199 3.22141 30.7622
0.966857 3.21977 30.7449
0.911773 3.21813 30.7273
0.856742 3.21649 30.7097
0.746837 3.21321 30.6741
0.0924314 3.22682 30.7572
0.0349482 3.22414 30.6745
-0.126038 3.22015 30.6791
-0.729271 3.23546 30.7653
2.5925 3.2786 31.9366
2.46923 3.24333 31.7224
2.39698 3.23958 31.5797
2.34006 3.23796 31.5651
2.03669 3.19636 31.1815
1.98053 3.19474 31.1662
1.92441 3.19313 31.1507
1.74392 3.18637 30.9782
1.68818 3.18475 30.9623
1.63248 3.18314 30.9463
1.57683 3.18152 30.9301
1.52122 3.17991 30.9139
1.46565 3.17829 30.8975
1.41013 3.17667 30.881
1.35466 3.17505 30.8644
1.29923 3.17343 30.8476
1.24385 3.17181 30.8308
1.18852 3.17019 30.8138
1.13324 3.16857 30.7968
1.07801 3.16695 30.7796
1.02283 3.16532 30.7623
0.967698 3.1637 30.7449
0.912619 3.16207 30.7273
0.857592 3.16045 30.7097
0.802617 3.15882 30.6919
0.747696 3.15719 30.674
0.0358643 3.16794 30.6742
-0.125103 3.1639 30.6787
-0.233943 3.1606 30.6389
-0.34252 3.1573 30.5986
-0.568219 3.18204 30.6989
-0.728275 3.17891 30.7647
-1.01083 3.20226 30.8427
2.80964 3.26223 32.4313
2.66703 3.2246 32.0819
2.46999 3.18598 31.7231
2.39774 3.18245 31.5804
2.34082 3.18085 31.5658
1.92519 3.13661 31.1512
1.74471 3.1301 30.9786
1.68897 3.12849 30.9626
1.63328 3.12689 30.9466
1.57762 3.12529 30.9304
1.52202 3.12369 30.9141
1.46646 3.12209 30.8977
1.41094 3.12048 30.8812
1.35547 3.11888 30.8645
1.30005 3.11727 30.8478
1.24467 3.11566 30.8309
1.18935 3.11406 30.8139
