-0.613909 9.0669 31.0987
-1.46679 9.24464 31.7122
3.06457 9.4181 32.6429
3.00549 9.41621 32.6323
2.75843 9.3422 32.4011
2.69162 9.32787 32.3245
2.62506 9.31352 32.2478
2.56668 9.31143 32.2362
2.26701 9.23532 31.9916
2.1948 9.20894 31.8505
2.13715 9.20667 31.838
1.44091 9.04925 31.3157
1.38433 9.04665 31.3016
1.32778 9.04404 31.2873
1.27128 9.0414 31.2729
1.21482 9.03874 31.2584
1.10201 9.03336 31.2291
1.04567 9.03063 31.2142
-0.228 9.00893 31.0949
-0.446244 9.01953 31.1518
-0.557389 9.01282 31.1156
3.06532 9.35928 32.6432
3.00624 9.35738 32.6326
2.94718 9.35547 32.6218
2.69238 9.26946 32.3246
2.62582 9.25521 32.2478
2.56744 9.25312 32.2362
2.38367 9.18174 32.0159
2.32572 9.17954 32.0037
2.26779 9.17732 31.9915
2.19558 9.15116 31.8504
1.32862 8.98692 31.2867
1.27212 8.98429 31.2723
1.21566 8.98163 31.2578
1.10287 8.97626 31.2284
1.04653 8.97354 31.2135
0.877772 8.96524 31.1682
0.765488 8.9596 31.1374
0.709413 8.95675 31.1219
0.383683 8.89909 30.9723
0.318216 8.93616 31.0097
0.157482 8.9503 31.0865
-0.00963354 8.94095 31.0356
-0.065231 8.9378 31.0185
-0.120774 8.93462 31.0012
-0.227013 8.95161 31.0936
-0.338158 8.9451 31.0583
3.21613 9.39526 32.9872
3.00699 9.29856 32.6328
2.87179 9.27018 32.4792
2.81862 9.22716 32.4124
2.75995 9.22515 32.4012
2.69314 9.21104 32.3246
2.62657 9.1969 32.2479
2.38445 9.12374 32.0158
2.3265 9.12155 32.0036
2.26857 9.11933 31.9913
2.19635 9.09338 31.8502
2.13871 9.09111 31.8376
1.55987 9.00331 31.5231
1.49918 8.93755 31.3287
1.44257 8.93499 31.3146
1.386 8.93241 31.3004
1.32946 8.9298 31.2861
1.27297 8.92718 31.2717
1.21651 8.92453 31.2571
1.10372 8.91917 31.2277
1.04739 8.91645 31.2128
-0.226024 8.89429 31.0924
-0.337157 8.88781 31.057
-0.555323 8.89789 31.1129
3.06681 9.24162 32.6437
3.00774 9.23973 32.633
2.76072 9.16663 32.4013
2.6939 9.15263 32.3247
2.62733 9.1386 32.2479
2.56896 9.13651 32.2362
2.26935 9.06134 31.9912
2.19713 9.03561 31.85
2.13949 9.03334 31.8374
1.38684 8.87529 31.2998
1.33031 8.87269 31.2855
1.27381 8.87007 31.2711
1.21736 8.86743 31.2565
1.10458 8.86208 31.227
1.04825 8.85937 31.2121
0.879519 8.85112 31.1667
0.767252 8.84551 31.1358
-0.00771603 8.82668 31.0334
-0.0633027 8.82354 31.0162
-0.118834 8.82039 30.9989
-0.225033 8.83699 31.0912
-0.336155 8.83052 31.0557
3.21762 9.27655 32.988
3.06756 9.1828 32.6439
3.00848 9.18091 32.6332
2.68649 9.08236 32.2595
2.62809 9.0803 32.2479
2.56972 9.07821 32.2363
2.386 9.00776 32.0156
2.32805 9.00556 32.0034
2.27013 9.00335 31.991
2.19791 8.97784 31.8499
1.10544 8.805 31.2263
1.04911 8.80229 31.2114
0.880395 8.79406 31.1659
0.768136 8.78846 31.135
0.712075 8.78563 31.1194
0.600092 8.77991 31.0878
0.544171 8.77702 31.0718
0.432475 8.77116 31.0395
0.376701 8.7682 31.0232
0.320977 8.76523 31.0067
0.265303 8.76223 30.9902
0.154111 8.75616 30.9567
-0.00675521 8.76955 31.0323
-0.0623365 8.76643 31.0151
-0.117863 8.76328 30.9977
-0.224042 8.77969 31.09
-0.335152 8.77324 31.0545
3.21837 9.2172 32.9883
3.00923 9.12208 32.6335
2.93283 9.0963 32.4908
2.87403 9.09435 32.4798
2.82091 9.05161 32.4127
2.68725 9.02406 32.2595
2.62886 9.022 32.248
2.32883 8.94758 32.0032
2.26363 8.93384 31.9265
2.19869 8.92007 31.8497
2.14105 8.9178 31.837
1.56233 8.83102 31.5217
1.49778 8.78603 31.3539
1.44508 8.76364 31.3129
1.38852 8.76107 31.2987
1.33199 8.75848 31.2843
1.27551 8.75587 31.2698
1.21907 8.75324 31.2552
1.1063 8.74792 31.2257
1.04998 8.74522 31.2107
0.881272 8.73701 31.1651
-0.11689 8.70618 30.9965
-0.223049 8.7224 31.0888
-0.334147 8.71597 31.0532
3.14115 9.13189 32.8444
3.06905 9.06516 32.6445
3.00999 9.06326 32.6337
2.68801 8.96576 32.2596
2.62962 8.9637 32.248
2.57125 8.96162 32.2363
2.25713 8.86454 31.8621
2.19947 8.8623 31.8495
2.14183 8.86004 31.8369
1.33284 8.70138 31.2837
1.27636 8.69878 31.2692
1.21992 8.69616 31.2546
1.046 8.67712 31.1472
0.88215 8.67996 31.1644
0.713856 8.67158 31.1177
0.54598 8.66301 31.07
0.434303 8.6572 31.0376
0.378538 8.65426 31.0212
0.322823 8.6513 31.0048
0.26716 8.64832 30.9882
0.155988 8.64229 30.9546
-0.00482959 8.65532 31.0301
-0.0604 8.65221 31.0128
-0.115915 8.64909 30.9954
-0.222054 8.66511 31.0875
-0.333141 8.65871 31.052
3.06981 9.00634 32.6447
3.01074 9.00444 32.634
2.93433 8.97909 32.4912
2.68877 8.90747 32.2597
2.63038 8.90541 32.2481
2.57202 8.90332 32.2363
2.49812 8.87824 32.0945
2.44317 8.85603 32.0549
2.38834 8.8338 32.0153
2.3304 8.83161 32.003
2.2652 8.81809 31.9263
2.20025 8.80454 31.8494
1.04686 8.62016 31.1465
0.873993 8.60105 31.0379
0.546886 8.60602 31.0691
0.435218 8.60022 31.0367
0.379458 8.59729 31.0203
0.323749 8.59434 31.0038
0.26809 8.59137 30.9872
0.156928 8.58536 30.9536
-0.00386484 8.59821 31.0289
-0.114939 8.592 30.9942
-0.221058 8.60783 31.0863
3.01149 8.94562 32.6342
2.93507 8.92049 32.4914
2.87627 8.91853 32.4803
2.68953 8.84918 32.2597
2.63115 8.84711 32.2481
2.57278 8.84503 32.2363
2.26598 8.76022 31.9261
2.20103 8.74678 31.8492
2.1434 8.74452 31.8365
1.5648 8.65876 31.5203
1.49634 8.63427 31.3793
1.43966 8.63174 31.3651
1.39105 8.58977 31.2969
1.27806 8.58461 31.268
1.22163 8.582 31.2533
1.04772 8.56321 31.1458
0.874866 8.54422 31.0372
-0.00289885 8.54111 31.0278
-0.113963 8.53492 30.9931
-0.220062 8.55056 31.0851
-0.331125 8.5442 31.0495
-0.38657 8.541 31.0315
-0.616303 8.59008 31.1417
3.07131 8.88871 32.6452
3.01224 8.8868 32.6344
2.6903 8.79088 32.2598
2.63191 8.78882 32.2482
2.56566 8.77547 32.1714
2.25947 8.69125 31.8617
2.20181 8.68902 31.849
2.14418 8.68677 31.8363
1.2173 8.51421 31.1899
1.04859 8.50626 31.1451
0.87574 8.4874 31.0364
0.548702 8.49206 31.0673
0.437053 8.48629 31.0348
0.381303 8.48338 31.0184
0.325603 8.48045 31.0018
0.269955 8.47749 30.9852
0.158813 8.47153 30.9515
-0.00193165 8.48401 31.0267
-0.112984 8.47784 30.9919
-0.330116 8.48696 31.0482
3.22211 8.92046 32.9902
3.013 8.82799 32.6347
2.93657 8.80329 32.4919
2.63268 8.73054 32.2482
2.56642 8.71729 32.1714
2.50041 8.70402 32.0945
2.44549 8.68196 32.0548
2.38748 8.6798 32.0426
2.33275 8.65769 32.0026
2.26025 8.6335 31.8615
2.2026 8.63127 31.8489
1.56057 8.53316 31.456
1.49799 8.51988 31.3784
0.876615 8.43059 31.0357
0.70904 8.4223 30.9887
0.549611 8.43508 31.0664
0.437972 8.42933 31.0339
0.382227 8.42643 31.0174
0.326532 8.42351 31.0009
0.270889 8.42057 30.9842
0.159757 8.41462 30.9505
-0.000963255 8.42692 31.0256
-0.614247 8.4751 31.1391
2.93732 8.74469 32.4921
2.87853 8.74274 32.481
2.69183 8.67431 32.26
2.63345 8.67225 32.2483
2.26103 8.57574 31.8614
2.20338 8.57351 31.8487
1.5614 8.47587 31.4555
1.49881 8.4627 31.3779
1.44214 8.46019 31.3637
1.38954 8.43808 31.3223
1.28062 8.41339 31.2661
1.21901 8.40028 31.1886
1.04546 8.38187 31.0809
0.877491 8.37378 31.0349
0.709929 8.36551 30.9879
0.160703 8.35772 30.9495
6.29339e-006 8.36984 31.0245
-0.111024 8.36372 30.9896
-0.328092 8.3725 31.0457
-0.383519 8.36933 31.0276
-0.614777 8.40681 31.0734
3.14562 8.77712 32.8465
3.07357 8.71227 32.6461
3.01451 8.71036 32.6352
2.93808 8.6861 32.4923
2.69259 8.61602 32.2601
2.63421 8.61397 32.2483
2.56796 8.60094 32.1715
2.50194 8.58788 32.0945
2.20417 8.51577 31.8486
1.21466 8.33292 31.1252
1.04632 8.32504 31.0802
0.990293 8.32237 31.065
0.878368 8.31697 31.0342
0.71082 8.30873 30.9871
0.551434 8.32114 31.0647
0.384078 8.31255 31.0155
0.328394 8.30965 30.9989
0.27276 8.30673 30.9822
0.161649 8.30082 30.9484
0.000976967 8.31276 31.0234
-0.110043 8.30666 30.9885
3.22437 8.74243 32.9914
3.01527 8.65155 32.6355
2.93883 8.6275 32.4926
2.63498 8.55569 32.2484
2.56872 8.54277 32.1716
2.50271 8.52982 32.0945
2.44463 8.52769 32.0824
2.2626 8.46024 31.8611
2.20495 8.45802 31.8484
1.56305 8.36128 31.4547
1.50046 8.34834 31.377
0.879246 8.26017 31.0334
0.711711 8.25196 30.9863
0.548472 8.25388 31.0009
0.385006 8.25562 31.0146
0.273697 8.24982 30.9812
0.162597 8.24393 30.9474
-0.612722 8.29209 31.0708
2.93958 8.56891 32.4928
2.88079 8.56695 32.4816
2.69413 8.49946 32.2602
2.63575 8.49741 32.2485
2.56949 8.48459 32.1716
2.26339 8.4025 31.861
2.20574 8.40028 31.8483
1.56388 8.304 31.4542
1.50129 8.29116 31.3766
1.44462 8.28867 31.3622
1.388 8.28615 31.3478
1.27487 8.28107 31.3185
1.22158 8.22944 31.1868
1.04805 8.2114 31.0789
0.992033 8.20874 31.0636
0.880125 8.20338 31.0327
0.712604 8.19519 30.9855
0.549382 8.19703 31.0001
0.385934 8.1987 31.0137
0.274636 8.19291 30.9803
0.163546 8.18705 30.9464
-0.108076 8.19257 30.9862
-0.218848 8.18644 30.9507
-0.391854 8.237 31.079
-0.447298 8.23385 31.0607
-0.502682 8.23067 31.0423
-0.611692 8.23474 31.0695
3.14787 8.59975 32.8476
3.07584 8.53584 32.6469
3.01679 8.53393 32.636
2.7533 8.44322 32.272
2.6949 8.44118 32.2603
2.63653 8.43913 32.2485
2.57026 8.42643 32.1716
2.50425 8.4137 32.0946
2.20653 8.34254 31.8482
1.55881 8.23646 31.3904
1.04892 8.15458 31.0782
0.992905 8.15194 31.0629
0.881006 8.14659 31.032
0.825123 8.14388 31.0163
0.713497 8.13842 30.9847
0.550294 8.14018 30.9992
0.386863 8.14178 31.0127
0.275575 8.13601 30.9793
0.220009 8.1331 30.9624
0.164495 8.13017 30.9454
-0.107091 8.13553 30.985
-1.1706 8.2576 31.3873
3.01755 8.47513 32.6363
2.94109 8.45173 32.4933
2.88231 8.44977 32.482
2.6373 8.38085 32.2486
2.57103 8.36826 32.1717
2.50502 8.35564 32.0946
2.44695 8.35352 32.0824
2.26496 8.28701 31.8608
2.20732 8.2848 31.848
1.56553 8.18944 31.4534
1.50294 8.17682 31.3757
1.44629 8.17434 31.3613
1.38967 8.17184 31.3468
0.54732 8.07335 30.9355
0.387794 8.08486 31.0118
-0.445281 8.11931 31.0583
-0.500653 8.11615 31.0398
-0.60963 8.12006 31.067
-1.16949 8.19954 31.3858
2.94185 8.39314 32.4935
2.88307 8.39118 32.4823
2.81036 8.34836 32.3117
2.75483 8.32667 32.2722
2.69644 8.32463 32.2605
2.63807 8.32258 32.2487
2.57181 8.31009 32.1718
2.32341 8.23147 31.8733
2.26575 8.22928 31.8607
2.20811 8.22706 31.8479
2.13644 8.20443 31.707
1.56636 8.13216 31.4529
1.50377 8.11966 31.3752
1.44712 8.11719 31.3608
1.39051 8.11469 31.3463
1.1628 8.04617 31.1072
1.05066 8.04097 31.0769
0.994651 8.03834 31.0615
0.882769 8.03302 31.0305
0.826896 8.03034 31.0148
0.715287 8.02491 30.9831
0.54823 8.01663 30.9346
0.388725 8.02795 31.0109
0.277457 8.02223 30.9773
0.221901 8.01934 30.9604
0.166398 8.01643 30.9433
0.110948 8.0135 30.9261
-0.105118 8.02148 30.9828
-0.160515 8.01846 30.965
-0.215855 8.01542 30.9472
-0.499637 8.05891 31.0386
-0.610184 8.05258 31.0014
3.15013 8.42239 32.8488
3.01907 8.35752 32.6368
2.94261 8.33455 32.4938
2.63884 8.26431 32.2488
2.56465 8.24163 32.1069
2.50656 8.23953 32.0947
2.4485 8.23741 32.0824
1.56719 8.07489 31.4525
1.5046 8.0625 31.3748
0.995526 7.98155 31.0608
0.883652 7.97625 31.0298
0.827783 7.97357 31.014
0.716183 7.96816 30.9823
0.54914 7.9599 30.9338
0.389658 7.97105 31.0099
0.222849 7.96247 30.9594
0.167351 7.95957 30.9423
0.111906 7.95665 30.9251
-0.609154 7.99536 31.0001
3.01983 8.29872 32.6371
2.94337 8.27597 32.4941
2.88458 8.27401 32.4827
2.56542 8.18357 32.1069
2.50733 8.18148 32.0947
2.44927 8.17936 32.0824
2.38267 8.11816 31.8857
2.32499 8.11599 31.8732
2.26733 8.11381 31.8605
2.20254 8.10162 31.7836
1.56212 8.00779 31.3887
1.50544 8.00535 31.3744
1.44879 8.00288 31.3599
1.38667 7.99061 31.2822
-0.497602 7.94443 31.0361
-0.608124 7.93816 30.9988
3.15163 8.30416 32.8495
2.94412 8.21738 32.4943
2.88534 8.21543 32.483
2.81264 8.1734 32.3122
2.75714 8.15185 32.2726
2.69876 8.14982 32.2608
2.64039 8.14777 32.2489
2.5662 8.12552 32.107
2.26812 8.05608 31.8604
2.20333 8.044 31.7835
1.56295 7.95063 31.3883
1.50627 7.94819 31.3739
1.44963 7.94574 31.3595
1.3875 7.93358 31.2818
1.21308 7.91636 31.1741
1.15686 7.91381 31.1591
1.05327 7.87058 31.0749
0.997278 7.86797 31.0595
0.941327 7.86535 31.0439
0.885421 7.86271 31.0283
0.829561 7.86005 31.0126
0.717979 7.85467 30.9807
0.550963 7.84648 30.9321
0.391525 7.85726 31.0081
0.280287 7.8516 30.9744
0.224747 7.84874 30.9574
0.169259 7.84586 30.9403
0.113825 7.84297 30.923
-0.10761 7.8697 31.0068
-0.168545 7.88596 31.0164
-0.223962 7.88295 30.9985
-0.279322 7.87993 30.9804
-0.496582 7.88721 31.0349
-0.607093 7.88096 30.9975
3.15239 8.24504 32.8499
3.02136 8.18112 32.6377
2.94488 8.1588 32.4946
2.64117 8.08951 32.249
2.56697 8.06747 32.1071
2.50888 8.06538 32.0948
2.45082 8.06327 32.0825
1.56969 7.9031 31.4513
1.5071 7.89105 31.3735
1.45046 7.8886 31.359
0.830451 7.8033 31.0118
0.774641 7.80063 30.9959
0.718878 7.79794 30.9799
0.663162 7.79523 30.9638
0.551876 7.78977 30.9312
0.39246 7.80037 31.0072
-0.495562 7.82998 31.0337
-0.60606 7.82376 30.9963
3.00444 8.10215 32.5061
2.94564 8.10022 32.4949
2.88687 8.09826 32.4835
2.56774 8.00943 32.1071
2.50966 8.00734 32.0949
2.44395 7.9954 32.0179
2.3785 7.98344 31.9407
2.32735 7.9428 31.8729
2.2697 7.94063 31.8602
2.20492 7.92876 31.7833
1.57052 7.84585 31.4509
1.4513 7.83146 31.3586
1.38918 7.81952 31.2808
-0.277344 7.76582 30.9782
-0.494541 7.77277 31.0325
-0.605027 7.76658 30.995
3.1539 8.12681 32.8508
2.9464 8.04164 32.4951
2.88763 8.03968 32.4837
2.81201 8.01785 32.3409
2.75946 7.97705 32.2731
2.70108 7.97503 32.2612
2.64272 7.97299 32.2492
2.56851 7.95138 32.1072
2.51043 7.94929 32.095
2.20571 7.87115 31.7832
1.56544 7.77918 31.3871
1.45214 7.77433 31.3581
1.39002 7.7625 31.2804
1.21562 7.74566 31.1726
1.15941 7.74313 31.1574
1.04713 7.73802 31.1268
0.999911 7.69765 31.0575
0.943973 7.69505 31.0419
0.88808 7.69244 31.0262
0.832233 7.6898 31.0104
0.776432 7.68715 30.9944
0.720678 7.68448 30.9784
0.664972 7.6818 30.9622
0.553705 7.67637 30.9295
0.498145 7.67364 30.913
0.390754 7.67736 30.9425
0.2276 7.67819 30.9545
0.11671 7.67249 30.92
-0.00463089 7.7047 30.9393
-0.110154 7.71768 31.0311
-0.165612 7.71473 31.0132
-0.221012 7.71176 30.9952
-0.276354 7.70877 30.977
-0.493519 7.71556 31.0312
3.15466 8.0677 32.8512
3.07723 8.04575 32.7068
3.01481 7.99486 32.5727
2.94717 7.98306 32.4954
2.56929 7.89334 32.1073
2.51121 7.89125 32.095
2.4455 7.87953 32.0179
1.56627 7.72204 31.3867
1.39086 7.70548 31.2799
-0.492496 7.65836 31.03
-0.602957 7.65222 30.9925
2.94793 7.92448 32.4957
2.8806 7.91282 32.4186
2.57006 7.8353 32.1074
2.51198 7.83321 32.0951
2.44628 7.8216 32.018
2.38083 7.80997 31.9407
2.32972 7.76964 31.8728
2.27208 7.76747 31.8599
2.20729 7.75593 31.783
1.5671 7.6649 31.3863
1.3917 7.64847 31.2795
1.21731 7.63188 31.1715
1.16111 7.62937 31.1563
-0.163652 7.6006 31.011
-0.219041 7.59766 30.993
-0.274372 7.5947 30.9748
-0.384854 7.58873 30.9381
-0.491473 7.60117 31.0288
-0.601921 7.59506 30.9912
3.15617 7.94947 32.852
2.88137 7.85435 32.4189
2.81429 7.84277 32.3416
2.75879 7.82152 32.3017
2.62894 7.77932 32.1197
2.57084 7.77726 32.1075
2.51276 7.77518 32.0952
2.20809 7.69833 31.7829
1.56793 7.60776 31.3859
1.387 7.58241 31.2159
1.33068 7.57995 31.2011
1.21816 7.57499 31.171
1.16197 7.57249 31.1558
1.10581 7.56997 31.1405
1.0497 7.56743 31.1251
0.993639 7.56487 31.1095
0.937618 7.5623 31.0938
0.881643 7.55971 31.0781
0.825714 7.5571 31.0622
0.723385 7.51434 30.9761
0.667692 7.51168 30.9598
0.612048 7.50901 30.9435
0.556453 7.50632 30.927
0.500908 7.50361 30.9105
0.389969 7.49815 30.877
0.220113 7.5454 31.0061
0.109065 7.53976 30.9715
0.0536237 7.53692 30.954
-0.00176265 7.53406 30.9363
-0.162671 7.54355 31.01
-0.218054 7.54062 30.9919
-0.273379 7.53767 30.9737
-0.490448 7.54398 31.0276
3.15693 7.89036 32.8525
3.0171 7.8188 32.5736
2.94945 7.80733 32.4963
2.89069 7.80538 32.4848
2.62971 7.72128 32.1198
2.57161 7.71922 32.1076
2.51354 7.71714 32.0952
2.44783 7.70575 32.0181
1.56877 7.55063 31.3855
1.38784 7.5255 31.2155
1.33152 7.52306 31.2006
0.557371 7.44964 30.9262
0.501831 7.44695 30.9096
-0.382845 7.47474 30.9358
-0.489423 7.4868 31.0264
-0.599846 7.48074 30.9887
2.95022 7.74876 32.4966
2.88289 7.73742 32.4194
2.81581 7.72605 32.3421
2.57239 7.66118 32.1077
2.51432 7.65911 32.0953
2.44861 7.64783 32.0182
2.38316 7.63652 31.9408
2.32539 7.63439 31.928
2.2025 7.57409 31.7187
2.14514 7.5719 31.7056
1.5696 7.4935 31.3851
1.38867 7.46861 31.215
1.33236 7.46617 31.2001
1.21986 7.46124 31.17
1.16367 7.45875 31.1548
1.10753 7.45624 31.1394
1.05143 7.45372 31.1239
0.232371 7.39406 30.9496
0.000153656 7.42032 30.9344
-0.160706 7.42947 31.0078
-0.216078 7.42656 30.9897
-0.271391 7.42364 30.9715
-0.381839 7.41775 30.9347
3.15845 7.77214 32.8533
2.88365 7.67895 32.4197
2.81657 7.6677 32.3424
2.75808 7.66571 32.3305
2.63126 7.6052 32.1201
2.57317 7.60315 32.1078
2.5151 7.60108 32.0954
2.20329 7.5166 31.7187
1.38951 7.41171 31.2146
1.3332 7.40928 31.1997
1.27694 7.40683 31.1846
1.22071 7.40437 31.1695
1.16453 7.40189 31.1542
1.10839 7.39939 31.1388
1.05229 7.39688 31.1234
0.996236 7.39435 31.1077
0.940228 7.3918 31.092
0.884265 7.38924 31.0762
0.828349 7.38666 31.0602
0.77248 7.38406 31.0441
0.716658 7.38145 31.0279
0.665651 7.36022 30.9846
0.614789 7.33897 30.9411
0.0618272 7.34759 30.9237
0.00650463 7.34476 30.9061
-0.159723 7.37243 31.0068
-0.270396 7.36663 30.9704
3.08176 7.6924 32.7093
2.95175 7.63161 32.4972
2.88442 7.62049 32.42
2.63204 7.54717 32.1202
2.57394 7.54512 32.1079
2.51588 7.54305 32.0955
2.45017 7.53198 32.0183
2.38471 7.5209 31.9409
1.57127 7.37926 31.3844
1.39035 7.35482 31.2142
1.33405 7.3524 31.1992
1.27778 7.34996 31.1842
1.22156 7.3475 31.169
-0.158739 7.3154 31.0057
-0.214099 7.31252 30.9876
-0.2694 7.30963 30.9693
-0.379824 7.30379 30.9324
-0.602703 7.32818 31.0127
-0.826834 7.35257 31.0925
3.15997 7.65393 32.8542
2.95251 7.57304 32.4976
2.88518 7.56203 32.4203
2.8181 7.55099 32.3429
2.57472 7.48709 32.1081
2.51666 7.48502 32.0956
2.45095 7.47407 32.0184
2.38549 7.46309 31.941
2.32773 7.46097 31.9281
2.20488 7.40162 31.7185
1.56622 7.31361 31.321
1.39119 7.29793 31.2137
1.33489 7.29552 31.1988
1.27863 7.29308 31.1837
1.22241 7.29064 31.1685
1.16624 7.28817 31.1532
1.1101 7.28569 31.1378
1.05402 7.28319 31.1222
0.997971 7.28068 31.1066
0.941971 7.27815 31.0908
-0.213108 7.25552 30.9865
-0.268404 7.25263 30.9682
-0.378816 7.24683 30.9312
-0.82578 7.29519 31.0912
3.16073 7.59482 32.8547
2.88595 7.50357 32.4206
2.81886 7.49264 32.3432
2.76037 7.49066 32.3312
2.63359 7.43111 32.1205
2.5755 7.42906 32.1082
2.51744 7.427 32.0957
2.20567 7.34414 31.7185
1.39204 7.24105 31.2133
1.33574 7.23864 31.1983
1.27948 7.23622 31.1832
1.22327 7.23378 31.168
1.16709 7.23132 31.1527
1.11097 7.22885 31.1372
1.05488 7.22636 31.1217
0.998839 7.22386 31.106
0.942844 7.22134 31.0902
0.830991 7.21625 31.0583
0.784529 7.17676 30.9878
-0.373676 7.20684 31.0579
-0.484285 7.20099 31.0204
-0.824725 7.23781 31.0899
3.08403 7.51573 32.7106
3.01283 7.45783 32.5097
2.95405 7.4559 32.4982
2.89529 7.45396 32.4866
2.63436 7.37308 32.1207
2.57628 7.37103 32.1083
2.51822 7.36897 32.0958
2.44483 7.34958 31.9539
2.38705 7.34748 31.9411
1.56789 7.19959 31.3202
1.39288 7.18417 31.2129
1.33658 7.18177 31.1979
1.28033 7.17935 31.1828
1.22412 7.17692 31.1675
1.16795 7.17447 31.1522
-0.483255 7.14385 31.0192
-0.593602 7.13797 30.9813
-0.823669 7.18044 31.0887
3.23498 7.53498 33.0594
3.16226 7.47661 32.8557
2.95481 7.39734 32.4986
2.88748 7.38665 32.4212
2.82039 7.37595 32.3437
2.519 7.31095 32.096
2.44561 7.29177 31.954
2.38783 7.28968 31.9412
2.33008 7.28757 31.9283
2.20726 7.22918 31.7183
1.56873 7.14259 31.3199
1.50642 7.13203 31.2422
1.39372 7.12729 31.2125
1.33743 7.1249 31.1975
1.28118 7.12249 31.1823
1.22497 7.12007 31.1671
1.16881 7.11763 31.1517
1.11269 7.11517 31.1362
1.00058 7.11022 31.1049
0.944591 7.10772 31.089
-0.822612 7.12308 31.0874
3.16302 7.4175 32.8561
2.88824 7.32819 32.4216
2.82115 7.3176 32.344
2.76267 7.31562 32.332
2.69403 7.25904 32.1333
2.63592 7.25702 32.121
2.57784 7.25499 32.1086
2.51978 7.25293 32.0961
2.44639 7.23397 31.9541
1.33827 7.06803 31.197
1.28203 7.06563 31.1819
1.22583 7.06322 31.1666
1.16967 7.06079 31.1512
1.11355 7.05834 31.1357
1.00145 7.0534 31.1043
0.945465 7.05091 31.0885
0.88965 6.99586 30.8931
-0.821555 7.06572 31.0861
3.0863 7.33907 32.7119
3.01832 7.3285 32.6341
2.95635 7.28021 32.4993
2.88901 7.26974 32.4219
2.6367 7.199 32.1212
2.52056 7.19491 32.0962
2.44717 7.17617 31.9542
2.38939 7.17408 31.9413
1.5704 7.02859 31.3192
1.50809 7.01826 31.2415
1.3954 7.01355 31.2117
1.33912 7.01117 31.1966
1.28288 7.00878 31.1814
1.22668 7.00637 31.1661
1.17052 7.00395 31.1507
1.11441 7.00151 31.1352
1.00232 6.99659 31.1038
3.16455 7.29929 32.8571
2.95712 7.22164 32.4996
2.88978 7.21128 32.4222
2.82269 7.20091 32.3446
2.44795 7.11837 31.9543
2.39017 7.11629 31.9414
2.33243 7.11419 31.9284
2.20965 7.05675 31.7182
1.50893 6.96138 31.2411
1.39625 6.95668 31.2113
1.33997 6.95431 31.1962
1.28373 6.95193 31.181
1.22754 6.94953 31.1657
1.17138 6.94712 31.1502
1.11527 6.94469 31.1347
1.00319 6.93979 31.1032
0.947215 6.93732 31.0873
0.223976 6.90384 30.8701
3.08782 7.2213 32.7129
2.88195 7.14452 32.3569
2.82345 7.14256 32.345
2.75668 7.13232 32.2675
2.69636 7.08497 32.1339
2.63826 7.08295 32.1216
2.44873 7.06057 31.9544
1.34082 6.89746 31.1958
1.28458 6.89508 31.1806
1.22839 6.89269 31.1652
1.17224 6.89029 31.1497
1.11614 6.88787 31.1342
0.391033 6.8551 30.9211
0.335606 6.85247 30.9039
0.224913 6.84719 30.8692
0.0650983 6.8547 30.9426
3.08858 7.16242 32.7134
3.02946 7.16053 32.7019
2.95866 7.10451 32.5004
2.89131 7.09438 32.4229
2.44951 7.00277 31.9545
2.39174 7.0007 31.9416
1.56825 6.86714 31.3153
1.5106 6.84762 31.2404
1.45425 6.8453 31.2255
1.39794 6.84296 31.2105
1.34166 6.84061 31.1954
1.28543 6.83824 31.1801
1.22925 6.83586 31.1648
1.1731 6.83346 31.1493
1.117 6.83105 31.1337
0.391955 6.79842 30.9204
0.336534 6.79581 30.9031
0.22585 6.79054 30.8684
0.0660584 6.79788 30.9417
-0.044516 6.79247 30.9058
-0.165971 6.82343 30.9239
3.16684 7.12198 32.8587
2.89208 7.03592 32.4233
2.82499 7.02588 32.3456
2.75821 7.01586 32.2681
2.45029 6.94498 31.9546
2.39252 6.94291 31.9417
2.32738 6.93295 31.8643
2.26594 6.90472 31.7591
2.20489 6.87662 31.6545
1.34251 6.78376 31.195
1.28629 6.7814 31.1797
1.2301 6.77903 31.1643
1.17396 6.77664 31.1488
1.11787 6.77424 31.1332
1.05208 6.75674 30.9919
0.50387 6.7469 30.9537
0.448348 6.74433 30.9367
0.392878 6.74174 30.9196
0.337461 6.73914 30.9023
0.226788 6.73391 30.8675
-0.0435444 6.73569 30.9048
-0.32613 6.77368 30.9952
3.1676 7.06288 32.8592
3.0901 7.04465 32.7143
2.89285 6.97747 32.4236
2.82575 6.96754 32.3459
2.75898 6.95762 32.2684
2.69869 6.9109 32.1346
2.64059 6.9089 32.1222
2.45107 6.88718 31.9548
1.17482 6.71983 31.1484
1.11375 6.70999 31.0699
0.504783 6.6902 30.953
0.449266 6.68764 30.936
0.393801 6.68507 30.9188
0.338389 6.68249 30.9016
0.227727 6.67727 30.8667
-0.32514 6.71666 30.9942
-0.435501 6.7111 30.9565
3.51904 7.37416 34.5963
3.09086 6.98577 32.7148
3.02287 6.97586 32.6369
2.96096 6.92883 32.5015
2.89362 6.91902 32.424
2.82652 6.9092 32.3463
2.45185 6.82939 31.9549
2.39409 6.82733 31.942
2.33636 6.82525 31.9289
1.57137 6.70465 31.3445
1.51312 6.67702 31.2394
1.45677 6.67472 31.2245
1.40047 6.6724 31.2094
1.34421 6.67008 31.1942
1.28799 6.66774 31.1789
1.17568 6.66301 31.1479
1.1196 6.66063 31.1322
0.56126 6.63605 30.9692
0.505697 6.63351 30.9523
0.450185 6.63097 30.9352
0.394725 6.62841 30.918
0.339318 6.62583 30.9008
0.228666 6.62064 30.8659
0.0689414 6.62746 30.939
-0.0415998 6.62214 30.9029
-0.151909 6.61675 30.8664
-0.318362 6.64149 30.9655
-0.434499 6.65411 30.9555
3.16913 6.94467 32.8603
2.96173 6.87027 32.5019
2.89439 6.86057 32.4244
2.82729 6.85086 32.3466
2.76882 6.8489 32.3345
2.51042 6.77364 31.9679
2.45263 6.7716 31.9551
2.39487 6.76954 31.9421
2.32973 6.75992 31.8646
2.26483 6.75028 31.7869
2.20728 6.70454 31.6545
1.34506 6.61324 31.1938
1.28885 6.61091 31.1785
0.61778 6.58186 30.9854
0.56217 6.57935 30.9685
0.506611 6.57683 30.9516
0.451104 6.57429 30.9345
0.340247 6.56918 30.9
0.229605 6.56402 30.865
0.0699033 6.57067 30.9381
-0.0406268 6.56537 30.902
-0.540182 6.60638 31.0447
3.09239 6.868 32.7159
2.82806 6.79252 32.347
2.76128 6.78293 32.2694
2.69475 6.77334 32.1917
2.64294 6.73485 32.1228
2.5112 6.71585 31.9681
2.45341 6.71381 31.9552
2.39566 6.71176 31.9422
1.22312 6.53749 31.037
0.507526 6.52015 30.9508
0.452023 6.51763 30.9338
0.341177 6.51254 30.8992
-0.432494 6.54016 30.9534
3.09315 6.80912 32.7164
3.02515 6.79954 32.6383
2.96328 6.75315 32.5028
2.89593 6.74367 32.4251
2.82883 6.73418 32.3474
2.64372 6.67684 32.1231
2.51198 6.65806 31.9683
2.45419 6.65602 31.9554
2.39644 6.65397 31.9424
2.3313 6.64457 31.8648
1.56977 6.55151 31.3714
1.51152 6.52426 31.2657
1.45514 6.52199 31.2507
1.40301 6.50188 31.2083
1.34676 6.49958 31.1931
1.28523 6.49023 31.1149
0.675241 6.47093 31.0008
0.61959 6.46846 30.984
0.50844 6.46347 30.9501
0.452943 6.46096 30.933
0.342106 6.4559 30.8984
0.231485 6.45079 30.8634
-0.0386798 6.45185 30.9001
-0.0938468 6.44921 30.8819
-0.148955 6.44655 30.8635
-0.321178 6.48863 30.9902
-0.431491 6.48319 30.9524
3.17143 6.76736 32.8619
2.8967 6.68523 32.4255
2.8296 6.67584 32.3477
2.76282 6.66648 32.2701
2.51276 6.60026 31.9685
2.45498 6.59824 31.9556
2.39723 6.59619 31.9425
2.33208 6.5869 31.8649
2.26719 6.57759 31.7872
2.20616 6.55035 31.6819
1.28609 6.43352 31.1145
0.676142 6.41422 31.0002
0.620496 6.41176 30.9834
0.453863 6.4043 30.9323
0.343036 6.39927 30.8977
0.287704 6.39673 30.8802
0.232425 6.39418 30.8626
0.177202 6.39162 30.8449
3.1538 6.69322 32.729
3.09467 6.69135 32.7174
2.83037 6.6175 32.3481
2.76358 6.60825 32.2704
2.69705 6.59899 32.1926
2.64528 6.56082 32.1236
2.51354 6.54248 31.9687
2.45576 6.54045 31.9557
2.39801 6.53841 31.9427
-0.319194 6.37465 30.9883
-0.429483 6.36927 30.9503
3.02743 6.62322 32.6399
2.96559 6.57748 32.5041
2.89824 6.56833 32.4264
2.83114 6.55917 32.3485
2.77268 6.55722 32.3362
2.51432 6.48469 31.9689
2.45654 6.48267 31.9559
2.3988 6.48063 31.9428
2.33365 6.47156 31.8652
1.57224 6.38032 31.3707
1.50989 6.37124 31.2922
1.45765 6.35131 31.2498
1.39709 6.36673 31.2619
0.784604 6.32334 31.0595
0.622308 6.29839 30.9821
0.455704 6.291 30.9309
0.344898 6.28601 30.8962
0.289575 6.2835 30.8787
0.234307 6.28098 30.861
0.179094 6.27845 30.8433
0.0634492 6.29101 30.8345
-0.102085 6.31453 30.9341
-0.157272 6.31191 30.9156
-0.318202 6.31766 30.9873
-0.428479 6.31231 30.9493
3.17373 6.59005 32.8637
2.89901 6.50989 32.4268
2.8319 6.50083 32.3489
2.76512 6.4918 32.2712
2.45733 6.42488 31.9561
2.39958 6.42285 31.943
2.33443 6.41389 31.8653
2.26954 6.40492 31.7875
2.19782 6.38909 31.6458
1.3953 6.26133 31.0815
0.785921 6.24235 30.9689
0.615196 6.22852 30.8558
0.456625 6.23436 30.9302
0.345829 6.2294 30.8954
0.290511 6.2269 30.8779
0.235248 6.22439 30.8602
-0.427474 6.25537 30.9483
3.09696 6.51471 32.7191
3.03785 6.51283 32.7074
2.83267 6.4425 32.3493
2.76589 6.43358 32.2715
2.69936 6.42464 32.1936
2.6444 6.40474 32.1527
2.57368 6.37111 31.9822
2.51588 6.36911 31.9693
2.45811 6.3671 31.9563
2.40037 6.36508 31.9432
1.57389 6.26621 31.3703
-0.21045 6.1957 30.8952
-0.426469 6.19843 30.9473
-0.591372 6.19041 30.8893
3.54141 6.87188 34.8174
3.09772 6.45583 32.7197
3.02971 6.44691 32.6415
2.9679 6.40181 32.5054
2.90055 6.393 32.4276
2.83344 6.38416 32.3497
2.57446 6.31332 31.9825
2.51666 6.31133 31.9696
2.45889 6.30932 31.9565
2.32857 6.29186 31.8012
2.27111 6.28981 31.7878
1.57472 6.20916 31.3701
1.51236 6.20041 31.2916
1.45596 6.19819 31.2764
0.90364 6.14025 31.0636
0.787701 6.12914 30.9678
0.616998 6.11559 30.8546
0.458468 6.12108 30.9288
0.347692 6.11617 30.894
0.292385 6.1137 30.8764
0.237132 6.11121 30.8587
0.181935 6.10872 30.8408
0.0717105 6.1037 30.8049
-0.0991952 6.14408 30.9315
-0.209475 6.13892 30.8943
-0.425463 6.14149 30.9463
3.15761 6.3988 32.7319
3.09849 6.39694 32.7203
2.89269 6.32775 32.3624
2.83421 6.32583 32.3501
2.76743 6.31713 32.2723
2.45968 6.25154 31.9567
2.32935 6.2343 31.8014
2.2719 6.23226 31.7879
2.20732 6.22365 31.7102
0.848709 6.08118 31.0466
0.788591 6.07254 30.9672
0.617899 6.05913 30.854
-0.424457 6.08456 30.9453
-0.589323 6.07664 30.8872
3.54293 6.74727 34.8197
3.15837 6.33991 32.7325
3.09925 6.33806 32.7209
3.03124 6.32937 32.6426
2.83498 6.2675 32.3505
2.7682 6.25891 32.2727
2.70166 6.25031 32.1947
2.64349 6.24835 32.182
2.57602 6.19775 31.983
2.51822 6.19576 31.9701
1.57637 6.09506 31.3697
1.51402 6.08654 31.2912
1.45198 6.07805 31.2128
1.39021 6.06955 31.1343
0.789482 6.01594 30.9667
-0.097267 6.03046 30.9297
-0.207524 6.02537 30.8925
-0.423451 6.02764 30.9443
3.54369 6.68497 34.8209
3.032 6.27059 32.6431
2.96423 6.262 32.5646
2.89423 6.21107 32.3633
2.83575 6.20916 32.351
2.51901 6.13798 31.9703
2.46124 6.13599 31.9572
2.33092 6.11919 31.8017
2.27347 6.11716 31.7882
2.21605 6.11512 31.7746
1.5772 6.03802 31.3696
1.51484 6.02961 31.291
1.45845 6.02742 31.2757
1.39104 6.01285 31.134
0.794728 5.96543 31.029
0.619703 5.94622 30.8528
0.461234 5.9512 30.9268
0.295196 5.94393 30.8742
0.234664 5.95886 30.8837
0.179435 5.95641 30.8658
0.0637074 5.96883 30.8569
-0.0963026 5.97367 30.9289
-0.206548 5.9686 30.8916
3.1599 6.22214 32.7338
3.10078 6.2203 32.7221
2.895 6.15274 32.3637
2.83653 6.15083 32.3514
2.76974 6.14246 32.2735
2.3317 6.06164 31.8019
2.27425 6.05962 31.7884
2.20968 6.05134 31.7106
1.33578 5.95394 31.1183
-0.47644 5.91123 30.923
-0.586248 5.90603 30.884
3.55568 6.56798 34.8975
3.10154 6.16141 32.7227
3.03352 6.15305 32.6443
2.77051 6.08424 32.2739
2.70397 6.07598 32.1959
2.6297 6.06143 32.0529
2.57836 6.02439 31.9839
2.52057 6.02242 31.9708
2.33248 6.00409 31.8021
1.57885 5.92393 31.3693
1.5165 5.91576 31.2906
1.46011 5.91358 31.2753
1.28057 5.89504 31.1024
0.0655917 5.85559 30.8554
-0.094373 5.86009 30.9272
-0.204595 5.85508 30.8898
-0.475427 5.85434 30.922
3.56691 6.51306 34.9731
3.1023 6.10253 32.7233
3.03429 6.09428 32.6449
2.97254 6.05048 32.5084
2.89654 6.03606 32.3647
2.83807 6.03416 32.3523
2.52135 5.96464 31.9711
2.33327 5.94654 31.8023
2.27582 5.94453 31.7887
2.21841 5.9425 31.775
1.57968 5.8669 31.3691
1.51733 5.85884 31.2904
1.46094 5.85667 31.2751
1.2814 5.83837 31.1021
1.22541 5.83616 31.0864
0.686068 5.79073 30.9937
0.622409 5.77689 30.851
0.4603 5.7756 30.862
0.287465 5.80865 30.9268
0.232148 5.80625 30.9089
0.176886 5.80383 30.8909
0.0665342 5.79897 30.8546
-0.0934079 5.8033 30.9264
-0.203619 5.79833 30.889
-0.258633 5.79583 30.8701
3.56768 6.4505 34.9743
3.16218 6.04549 32.7357
3.10307 6.04364 32.7239
2.8973 5.97773 32.3652
2.83884 5.97583 32.3528
2.7637 5.96168 32.2094
2.70551 5.95976 32.1967
2.33405 5.88899 31.8025
2.27661 5.88698 31.7889
2.21203 5.87904 31.711
1.5805 5.80986 31.369
1.51815 5.80192 31.2903
1.22625 5.7795 31.0861
0.631382 5.73176 30.9761
-0.202642 5.74159 30.8881
-0.25765 5.7391 30.8692
-0.312596 5.73661 30.8501
-0.473401 5.74057 30.92
-0.534371 5.75537 30.9283
-0.595372 5.77016 30.9364
3.73567 6.37853 34.858
3.56844 6.38794 34.9756
3.16294 5.9866 32.7364
3.10383 5.98476 32.7246
3.04474 5.98291 32.7126
2.83961 5.9175 32.3533
2.76446 5.90356 32.2098
2.70627 5.90165 32.1971
2.632 5.88776 32.054
2.5807 5.85104 31.9848
2.52292 5.84909 31.9717
2.33483 5.83144 31.8027
1.58133 5.75283 31.3688
1.51898 5.745 31.2901
1.4626 5.74285 31.2748
1.22709 5.72284 31.0858
1.17115 5.72064 31.0699
0.123556 5.68816 30.8714
0.0684198 5.68576 30.8531
0.0133413 5.68334 30.8348
-0.0914773 5.68975 30.9248
-0.201665 5.68484 30.8872
-0.256667 5.68237 30.8683
-0.311608 5.6799 30.8492
3.73643 6.31622 34.8593
3.02764 5.9119 32.5802
2.9688 5.91004 32.568
2.89884 5.86106 32.3662
2.84038 5.85917 32.3538
2.5237 5.79131 31.972
2.39308 5.77587 31.8165
2.33562 5.77389 31.803
2.27818 5.7719 31.7893
2.21361 5.76418 31.7114
1.58216 5.6958 31.3687
1.51981 5.68808 31.29
1.46343 5.68594 31.2746
1.28392 5.66836 31.1014
1.22793 5.66618 31.0855
1.17199 5.66399 31.0696
0.522192 5.61387 30.9404
0.457463 5.63063 30.9174
0.290231 5.63866 30.9248
0.179683 5.63393 30.8888
0.0693628 5.62916 30.8524
0.0142898 5.62676 30.834
-0.0905118 5.63299 30.924
-0.200688 5.62811 30.8864
3.56997 6.26282 34.9781
3.10536 5.86699 32.7259
2.84115 5.80084 32.3542
2.766 5.78734 32.2107
2.70781 5.78543 32.198
2.39387 5.71832 31.8167
2.3364 5.71634 31.8032
2.27897 5.71436 31.7895
2.21439 5.70675 31.7116
1.58298 5.63877 31.3686
1.52064 5.63117 31.2898
0.467691 5.55496 30.9223
0.0152384 5.57017 30.8333
-0.199711 5.57138 30.8856
-0.254702 5.56894 30.8666
-0.30963 5.56649 30.8475
-0.47036 5.56996 30.9171
3.74881 6.19847 34.9363
3.57074 6.20025 34.9794
3.10612 5.80811 32.7265
3.0381 5.80042 32.648
2.76677 5.72923 32.2112
2.70858 5.72732 32.1984
2.64236 5.71975 32.1204
2.57971 5.69493 32.014
2.52526 5.67576 31.9726
2.45214 5.66272 31.8305
2.39465 5.66077 31.817
2.33719 5.6588 31.8034
2.27976 5.65682 31.7897
1.58381 5.58175 31.3685
1.52146 5.57426 31.2897
1.4651 5.57214 31.2743
1.28559 5.55503 31.1009
1.22961 5.55288 31.085
1.17368 5.55071 31.069
1.1178 5.54853 31.0529
1.06196 5.54635 31.0366
0.292075 5.52536 30.9236
0.181548 5.52068 30.8875
0.12637 5.51833 30.8693
0.0712491 5.51597 30.851
0.016187 5.5136 30.8325
-0.198734 5.51465 30.8847
-0.253718 5.51223 30.8657
-0.308641 5.5098 30.8466
-0.3635 5.50736 30.8273
3.74957 6.13603 34.9376
3.02992 5.7359 32.5821
2.97108 5.73405 32.5699
2.90115 5.68605 32.3678
2.84269 5.68417 32.3553
2.76753 5.67111 32.2117
2.51824 5.61255 31.9085
2.45292 5.60517 31.8308
2.39543 5.60322 31.8173
2.33797 5.60125 31.8037
2.28054 5.59928 31.79
2.21596 5.5919 31.712
1.58464 5.52472 31.3684
1.52229 5.51735 31.2896
1.46027 5.50999 31.2109
1.28643 5.49837 31.1007
1.23045 5.49623 31.0848
1.17453 5.49407 31.0687
1.11865 5.49191 31.0526
1.06281 5.48973 31.0363
1.0023 5.48235 30.9571
0.292997 5.46871 30.9229
0.127307 5.46173 30.8686
0.0721924 5.45938 30.8503
0.0171358 5.45703 30.8318
-0.0871409 5.43538 30.7671
3.75033 6.07358 34.939
3.57226 6.07512 34.982
3.17946 5.73865 32.9328
3.10765 5.69033 32.7279
2.84346 5.62584 32.3558
2.7683 5.613 32.2121
2.71012 5.61111 32.1993
2.65197 5.60921 32.1864
2.39621 5.54567 31.8176
2.33875 5.54371 31.8039
2.28133 5.54174 31.7902
2.21675 5.53447 31.7122
1.58546 5.4677 31.3683
1.46676 5.45834 31.274
1.00788 5.43095 31.0196
3.75109 6.01113 34.9404
3.10841 5.63145 32.7286
3.03144 5.61857 32.5834
2.84423 5.56751 32.3563
2.76907 5.55489 32.2126
2.71089 5.553 32.1998
2.64467 5.54576 32.1217
2.58538 5.50436 31.9869
2.5198 5.49721 31.9092
2.45448 5.49006 31.8314
2.39699 5.48812 31.8178
2.33954 5.48617 31.8042
1.58035 5.40562 31.3047
1.46192 5.39641 31.2107
1.40016 5.38928 31.1319
1.2881 5.38506 31.1003
1.23214 5.38294 31.0843
1.17622 5.3808 31.0682
1.12034 5.37866 31.052
1.00874 5.37435 31.0193
0.288166 5.34545 30.7953
3.76272 5.95509 35.0161
3.0322 5.5599 32.584
2.90345 5.51104 32.3694
2.845 5.50918 32.3569
2.76983 5.49678 32.2131
2.51277 5.43442 31.8451
2.45526 5.4325 31.8317
2.39777 5.43057 31.8181
2.34032 5.42863 31.8045
2.2829 5.42667 31.7907
2.21832 5.41962 31.7126
1.58117 5.34871 31.3046
1.46275 5.33962 31.2105
1.40099 5.33261 31.1317
1.28894 5.32841 31.1001
1.23298 5.3263 31.0841
1.17706 5.32417 31.068
1.12119 5.32204 31.0518
1.06537 5.3199 31.0354
1.00959 5.31775 31.019
0.953864 5.3156 31.0024
0.898183 5.31343 30.9858
3.17829 5.52082 32.8089
3.10994 5.51367 32.73
2.90422 5.45271 32.37
2.7706 5.43866 32.2137
2.71243 5.43679 32.2008
2.45603 5.37495 31.832
2.39855 5.37302 31.8185
2.3411 5.37108 31.8048
2.28369 5.36914 31.791
2.21192 5.35722 31.6487
1.582 5.2918 31.3045
1.46358 5.28284 31.2104
1.40182 5.27594 31.1315
0.843422 5.2547 30.9686
-1.5966 5.34172 31.4533
3.82725 5.83162 35.0292
3.76425 5.82993 35.0189
3.1107 5.45478 32.7308
3.03372 5.44257 32.5854
2.77137 5.38055 32.2142
2.7132 5.37868 32.2013
2.63889 5.36676 32.0578
2.58435 5.34795 32.0164
2.52214 5.32421 31.9103
2.45681 5.31739 31.8324
2.39933 5.31547 31.8188
2.34189 5.31354 31.8051
2.28447 5.31161 31.7912
2.22709 5.30966 31.7773
1.58282 5.23489 31.3045
1.46441 5.22606 31.2103
1.40265 5.21927 31.1314
1.29061 5.21511 31.0997
1.23466 5.21302 31.0837
1.17875 5.21092 31.0675
1.12289 5.20881 31.0513
1.06707 5.2067 31.0349
1.01131 5.20457 31.0184
0.955586 5.20244 31.0018
0.899914 5.2003 30.9851
0.839884 5.19347 30.9053
-0.808237 5.21784 31.0034
3.82802 5.76904 35.0307
3.76501 5.76735 35.0204
3.03448 5.3839 32.5861
2.96423 5.33787 32.3837
2.90576 5.33603 32.3712
2.77214 5.32244 32.2147
2.52292 5.26655 31.9107
2.45759 5.25984 31.8327
2.40012 5.25793 31.8191
2.34267 5.256 31.8054
2.28526 5.25407 31.7915
2.21348 5.24259 31.6491
1.58364 5.17798 31.3044
1.46524 5.16927 31.2102
1.40348 5.1626 31.1313
1.29145 5.15847 31.0995
1.2355 5.15639 31.0835
1.1796 5.1543 31.0673
1.12374 5.1522 31.051
1.06793 5.1501 31.0346
1.01216 5.14799 31.0181
0.956447 5.14586 31.0015
0.900779 5.14374 30.9847
0.845161 5.1416 30.9679
-0.584277 5.14407 30.9261
-0.800823 5.14389 30.9744
3.82878 5.70645 35.0322
3.76578 5.70476 35.0218
3.11222 5.337 32.7322
2.8311 5.26618 32.2281
2.7729 5.26432 32.2152
2.71473 5.26246 32.2023
2.4009 5.20038 31.8194
2.34345 5.19846 31.8057
2.28604 5.19654 31.7918
2.21427 5.18528 31.6494
1.58447 5.12108 31.3044
1.46607 5.11249 31.2101
1.40431 5.10594 31.1312
1.34828 5.10389 31.1153
1.29229 5.10183 31.0994
1.23634 5.09976 31.0833
-0.583268 5.08719 30.9252
3.76654 5.64217 35.0233
3.036 5.26656 32.5875
2.77367 5.20621 32.2158
2.7155 5.20436 32.2028
2.64119 5.19309 32.0593
2.5833 5.19122 32.046
2.52447 5.15122 31.9115
2.45915 5.14473 31.8334
2.40168 5.14283 31.8198
2.34424 5.14093 31.806
2.28683 5.13901 31.7921
2.21505 5.12797 31.6497
1.58529 5.06418 31.3043
1.46122 5.05131 31.1468
1.40514 5.04928 31.131
1.34911 5.04723 31.1152
1.29312 5.04519 31.0992
1.23718 5.04313 31.0831
1.18129 5.04106 31.0669
1.12544 5.03899 31.0506
1.06963 5.03691 31.0341
1.01388 5.03482 31.0176
0.902509 5.03062 30.9841
0.8469 5.02851 30.9672
0.735832 5.02426 30.933
0.676291 5.01777 30.8529
-0.256587 5.03524 30.9137
-0.311552 5.03296 30.8943
-0.58226 5.03031 30.9243
-0.691792 5.02563 30.8841
-0.798741 5.02984 30.9725
3.03676 5.20789 32.5882
2.96039 5.19661 32.4432
2.90806 5.16102 32.373
2.83263 5.14994 32.2292
2.77444 5.1481 32.2164
2.45993 5.08718 31.8338
2.40246 5.08529 31.8201
2.34502 5.08339 31.8063
2.28761 5.08148 31.7924
2.21583 5.07065 31.6499
1.46204 4.99464 31.1467
1.40597 4.99262 31.1309
1.34994 4.99059 31.1151
1.29396 4.98855 31.0991
1.23802 4.9865 31.0829
1.18213 4.98445 31.0667
1.12628 4.98239 31.0504
1.07048 4.98032 31.0339
1.01473 4.97824 31.0173
0.903374 4.97407 30.9838
0.847769 4.97197 30.9669
0.73671 4.96775 30.9326
0.677171 4.96138 30.8525
-0.0954812 4.97656 30.8425
-0.365476 4.97393 30.8741
-0.475073 4.96937 30.8348
3.70507 5.51528 35.0158
3.5976 5.54146 35.1778
3.53155 5.55816 35.2005
3.11451 5.16032 32.7346
2.83339 5.09182 32.2298
2.7752 5.08998 32.2169
2.71704 5.08814 32.2039
2.21662 5.01334 31.6502
1.58694 4.95038 31.3043
1.46287 4.93797 31.1466
1.4068 4.93596 31.1308
1.35078 4.93394 31.1149
1.2948 4.93191 31.0989
1.23886 4.92988 31.0828
1.18297 4.92784 31.0665
0.68214 4.90913 30.915
0.13121 4.91236 30.8895
0.021051 4.90796 30.8522
-0.0283182 4.88934 30.8061
-0.0831994 4.88713 30.7872
-0.138019 4.88491 30.7681
-0.364498 4.91721 30.8733
-0.474083 4.91267 30.834
3.89485 5.45775 35.0485
3.83183 5.45607 35.0382
3.03827 5.09054 32.5897
2.77597 5.03187 32.2175
2.64348 5.01943 32.0608
2.5856 5.01757 32.0475
2.52681 4.97822 31.9127
2.46148 4.97208 31.8346
2.40402 4.9702 31.8209
2.2174 4.95603 31.6505
2.16029 4.95412 31.6363
1.58186 4.88938 31.2411
1.46369 4.8813 31.1466
1.40763 4.8793 31.1308
1.35161 4.87729 31.1148
1.29563 4.87528 31.0988
1.2397 4.87326 31.0826
1.18382 4.87123 31.0663
1.07219 4.86715 31.0334
1.01645 4.86509 31.0168
0.905104 4.86097 30.9832
0.849508 4.8589 30.9662
0.738466 4.85473 30.9319
0.683023 4.85264 30.9146
0.572293 4.84843 30.8796
0.296417 4.83778 30.7901
0.137623 4.83938 30.8615
-0.473093 4.85599 30.8331
-0.688727 4.85514 30.8813
-0.795619 4.8588 30.9696
3.89561 5.39515 35.05
3.83259 5.39347 35.0397
3.03903 5.03187 32.5905
2.96574 5.00454 32.4165
2.91037 4.986 32.375
2.83492 4.97558 32.231
2.77673 4.97376 32.2181
2.46226 4.91453 31.835
2.4048 4.91265 31.8212
2.21818 4.89872 31.6508
2.16107 4.89682 31.6365
1.57677 4.8286 31.1778
1.46452 4.82464 31.1465
1.40846 4.82265 31.1307
1.35244 4.82065 31.1147
1.29647 4.81865 31.0987
1.24054 4.81664 31.0825
1.18466 4.81462 31.0662
1.0173 4.80852 31.0166
0.905969 4.80442 30.9829
0.850376 4.80236 30.9659
0.739344 4.79822 30.9316
0.683905 4.79614 30.9142
0.573185 4.79196 30.8792
0.517905 4.78986 30.8615
0.462679 4.78776 30.8437
0.407508 4.78564 30.8258
0.297334 4.78139 30.7896
0.242332 4.77926 30.7713
-0.362541 4.80377 30.8718
-0.472102 4.79931 30.8323
-0.687706 4.79832 30.8805
3.83336 5.33086 35.0413
3.59714 5.37097 35.2159
3.53382 5.36925 35.2049
2.83569 4.91746 32.2317
2.7775 4.91564 32.2187
2.64501 4.90365 32.0618
2.21896 4.84141 31.6511
1.5835 4.7758 31.2411
1.46534 4.76798 31.1465
1.40929 4.766 31.1306
1.35327 4.76401 31.1146
1.29731 4.76202 31.0985
1.24138 4.76002 31.0823
1.18551 4.75801 31.066
1.01816 4.75196 31.0163
0.906833 4.74788 30.9826
0.851245 4.74584 30.9656
0.740222 4.74172 30.9312
0.684787 4.73966 30.9139
0.574076 4.7355 30.8788
0.518801 4.73342 30.8611
0.46358 4.73133 30.8432
0.408414 4.72923 30.8253
0.29825 4.72501 30.7891
0.243253 4.72289 30.7708
0.139498 4.72628 30.8603
0.029468 4.72199 30.8229
-0.0254569 4.71983 30.8041
-0.0803211 4.71767 30.7851
-0.146606 4.74802 30.8208
-0.361563 4.74705 30.871
-0.41637 4.74485 30.8513
-0.471112 4.74263 30.8315
3.89713 5.26993 35.0532
3.83412 5.26825 35.0429
3.04055 4.91452 32.592
2.83645 4.85934 32.2323
2.77826 4.85753 32.2193
2.70368 4.84759 32.0757
2.64578 4.84576 32.0624
2.5879 4.84393 32.049
2.52571 4.82161 31.9421
2.46382 4.79942 31.8358
2.40636 4.79757 31.822
2.21975 4.7841 31.6514
1.58432 4.71902 31.2411
1.46617 4.71132 31.1464
1.41012 4.70935 31.1305
1.35411 4.70737 31.1146
1.29814 4.70539 31.0984
1.24222 4.70341 31.0822
1.18635 4.70141 31.0659
1.01901 4.69539 31.0161
0.907697 4.69134 30.9824
0.852114 4.68931 30.9653
0.741099 4.68523 30.9309
0.685669 4.68317 30.9135
0.574967 4.67905 30.8784
0.519697 4.67698 30.8606
0.464481 4.6749 30.8428
0.40932 4.67282 30.8248
0.299166 4.66863 30.7886
0.244175 4.66653 30.7703
0.140434 4.66974 30.8597
-0.415386 4.68816 30.8506
-0.470122 4.68596 30.8307
-0.630971 4.68691 30.899
-0.805402 4.7207 31.0232
-0.860212 4.71844 31.0025
3.89789 5.20732 35.0548
3.83488 5.20563 35.0444
3.59865 5.24501 35.219
3.53533 5.24329 35.2079
2.96491 4.8459 32.4476
2.83721 4.80122 32.2329
2.77903 4.79941 32.2199
2.40714 4.74002 31.8225
2.22053 4.72679 31.6518
1.41094 4.6527 31.1305
1.35494 4.65074 31.1145
1.24306 4.64679 31.0821
1.18719 4.64481 31.0657
1.01987 4.63883 31.0159
0.908561 4.63481 30.9821
0.852982 4.63279 30.9651
0.741976 4.62873 30.9306
0.686551 4.62669 30.9132
0.575859 4.6226 30.878
0.520593 4.62054 30.8602
0.465382 4.61848 30.8424
0.410226 4.61641 30.8244
-0.254296 4.6306 30.7809
-0.359608 4.63364 30.8696
-0.414403 4.63147 30.8498
-0.469132 4.62929 30.83
3.9099 5.14956 35.1313
3.83564 5.14302 35.046
3.59941 5.18202 35.2205
3.11908 4.80693 32.7394
2.83798 4.7431 32.2336
2.77979 4.74129 32.2206
2.70521 4.7318 32.0768
2.6473 4.72998 32.0635
2.22131 4.66949 31.6521
1.58596 4.60545 31.2411
1.46782 4.598 31.1464
1.41177 4.59605 31.1305
1.35577 4.5941 31.1144
1.2439 4.59018 31.082
1.18804 4.58821 31.0656
1.02072 4.58227 31.0157
0.909425 4.57827 30.9819
0.85385 4.57627 30.9648
0.687432 4.57021 30.9128
0.57675 4.56615 30.8776
0.521489 4.5641 30.8598
0.411132 4.56 30.8239
0.300998 4.55588 30.7876
0.246017 4.55381 30.7692
0.0323105 4.55247 30.8211
-0.0225975 4.55036 30.8022
-0.0888762 4.58045 30.838
-0.143758 4.57833 30.8189
-0.35863 4.57694 30.8688
-0.413419 4.57479 30.8491
3.91066 5.08681 35.133
3.8364 5.08039 35.0476
3.04282 4.73848 32.5944
2.78056 4.68318 32.2212
2.70597 4.6739 32.0774
2.64807 4.67209 32.0641
2.5902 4.67028 32.0506
2.52018 4.64482 31.879
2.46615 4.62677 31.8372
2.40869 4.62494 31.8233
2.22209 4.61218 31.6524
1.58086 4.54519 31.1779
1.52473 4.54327 31.1622
1.46864 4.54134 31.1464
1.4126 4.53941 31.1304
1.3566 4.53747 31.1144
1.24474 4.53358 31.0819
1.18888 4.53162 31.0655
1.02158 4.52571 31.0155
0.845846 4.51291 30.8387
0.688314 4.51374 30.9125
0.57764 4.5097 30.8772
0.522384 4.50767 30.8594
0.412037 4.5036 30.8235
0.301913 4.49951 30.7871
0.246937 4.49745 30.7687
-0.357653 4.52025 30.8681
-0.412436 4.51811 30.8483
-0.627928 4.51645 30.8965
-1.7082 4.62346 31.5869
3.91143 5.02406 35.1346
3.60092 5.05604 35.2237
3.04357 4.6798 32.5952
2.8395 4.62685 32.2349
2.78132 4.62506 32.2218
2.46692 4.56922 31.8376
2.40947 4.56739 31.8237
2.22287 4.55487 31.6528
2.16578 4.55302 31.6384
1.35743 4.48084 31.1143
1.24558 4.47697 31.0818
1.18972 4.47502 31.0653
1.02243 4.46916 31.0153
0.84671 4.45661 30.8384
0.685087 4.45396 30.8492
0.578531 4.45326 30.8769
-0.251415 4.46105 30.7788
-0.411453 4.46144 30.8476
-1.30506 4.52623 31.28
3.91219 4.96131 35.1363
3.72836 4.99645 35.247
3.66501 4.99475 35.2362
3.04433 4.62112 32.5961
2.84026 4.56872 32.2356
2.76541 4.55989 32.0919
2.70749 4.5581 32.0787
2.64959 4.55631 32.0653
2.28078 4.4994 31.6675
2.22365 4.49756 31.6532
1.58841 4.4351 31.2413
1.52637 4.42994 31.1623
1.47029 4.42804 31.1464
1.41425 4.42613 31.1304
1.35826 4.42421 31.1143
1.24642 4.42037 31.0817
1.19056 4.41843 31.0652
1.02329 4.4126 31.0152
0.847572 4.4003 30.8381
0.685966 4.39759 30.8489
0.579421 4.39682 30.8765
0.524174 4.39482 30.8587
0.413847 4.39081 30.8226
0.358767 4.3888 30.8044
0.303744 4.38678 30.7861
0.248778 4.38476 30.7677
0.139021 4.3807 30.7305
-0.0311204 4.41282 30.8554
-0.140913 4.40869 30.817
-0.250455 4.40454 30.7782
-0.41047 4.40478 30.8469
-0.857071 4.42648 30.8682
-1.30406 4.46514 31.2126
3.91295 4.89855 35.138
3.04509 4.56244 32.5969
2.84102 4.5106 32.2363
2.76617 4.50199 32.0926
2.70825 4.50021 32.0793
2.65036 4.49842 32.0659
2.59249 4.49663 32.0523
2.52595 4.45593 31.8524
2.46847 4.45412 31.8386
2.41103 4.45231 31.8247
2.28156 4.44208 31.6679
2.22443 4.44026 31.6535
1.58923 4.37833 31.2413
1.52719 4.37328 31.1623
1.47111 4.37139 31.1464
1.41508 4.36949 31.1304
1.35909 4.36759 31.1142
1.24726 4.36376 31.0816
1.19141 4.36184 31.0651
1.02414 4.35605 31.015
0.848435 4.344 30.8379
0.686844 4.34123 30.8486
0.580311 4.34038 30.8762
0.525069 4.3384 30.8583
0.359676 4.33242 30.804
0.304658 4.33042 30.7857
-0.409487 4.34811 30.8462
-0.624889 4.34604 30.894
-0.856048 4.36965 30.8673
3.66652 4.86875 35.2395
2.96943 4.49515 32.4522
2.84179 4.45247 32.237
2.76693 4.44408 32.0932
2.41181 4.39477 31.8251
2.28234 4.38477 31.6683
2.22521 4.38295 31.6539
1.24809 4.30716 31.0816
1.19225 4.30526 31.0651
1.01545 4.29348 30.8889
0.849297 4.2877 30.8377
-0.139017 4.29562 30.8158
-0.193808 4.29358 30.7964
-0.248536 4.29154 30.7769
-0.408505 4.29146 30.8455
-1.30181 4.35328 31.2769
-1.53617 4.38375 31.3799
3.90321 4.7689 35.0664
3.7992 4.77378 35.1952
3.12363 4.45349 32.7447
3.0466 4.44507 32.5986
2.84255 4.39435 32.2377
2.76769 4.38618 32.0939
2.70977 4.38441 32.0806
2.65188 4.38263 32.0671
2.59402 4.38085 32.0535
2.28311 4.32745 31.6687
2.22599 4.32565 31.6543
1.58494 4.26183 31.1782
1.52883 4.25996 31.1624
1.47276 4.25809 31.1465
1.41673 4.25622 31.1304
1.36075 4.25434 31.1142
1.24893 4.25057 31.0815
1.18798 4.24576 31.002
1.0163 4.23715 30.8888
0.85016 4.23141 30.8375
0.684484 4.22563 30.7851
0.526857 4.22556 30.8576
0.361494 4.21968 30.8031
0.306487 4.21771 30.7848
0.251536 4.21574 30.7663
0.141812 4.21178 30.729
-0.13807 4.23908 30.8152
-0.192855 4.23707 30.7958
-0.247577 4.23504 30.7763
-0.854002 4.25601 30.8656
-1.30072 4.29565 31.276
3.03843 4.38317 32.5331
2.76845 4.32827 32.0946
2.71053 4.32651 32.0812
2.65264 4.32474 32.0678
2.59478 4.32297 32.0541
2.52478 4.29915 31.8822
2.46726 4.29737 31.8683
2.41336 4.27968 31.8261
2.34104 4.27193 31.6834
2.28389 4.27014 31.6691
2.22677 4.26834 31.6547
1.52965 4.2033 31.1625
1.47358 4.20145 31.1465
1.41756 4.19958 31.1304
1.36158 4.19772 31.1142
1.24977 4.19397 31.0815
1.18882 4.18928 31.0019
1.01715 4.18081 30.8886
0.851021 4.17512 30.8372
0.685359 4.16938 30.7848
0.527751 4.16915 30.8572
-0.191902 4.18056 30.7952
-0.246618 4.17855 30.7756
-0.406542 4.17815 30.8441
-0.631222 4.19492 30.8859
-1.29964 4.23802 31.275
3.56328 4.68425 35.3745
3.03919 4.32459 32.5339
2.97169 4.31976 32.4547
2.90226 4.27984 32.2523
2.84407 4.27809 32.2392
2.76921 4.27036 32.0953
2.71129 4.26861 32.0819
2.40657 4.21926 31.7623
2.34182 4.21461 31.6839
2.28467 4.21282 31.6696
2.22755 4.21103 31.6551
1.18455 4.1301 30.9389
1.01799 4.12448 30.8885
-0.136176 4.12603 30.8141
-0.190949 4.12405 30.7946
-0.245659 4.12206 30.775
-0.40556 4.12151 30.8434
-0.851958 4.14239 30.864
3.92802 4.58846 35.2216
3.79625 4.62006 35.268
3.56404 4.62098 35.3762
3.04886 4.269 32.6013
