-0.608154 7.2649 31.4842
2.50376 7.49343 32.7835
2.45122 7.45295 32.713
2.37679 7.43294 32.5663
2.25139 7.37289 32.3502
2.19295 7.37074 32.3371
2.13454 7.36858 32.3238
2.00407 7.34667 32.1649
1.94598 7.34445 32.1512
1.59425 7.27577 31.8791
1.53675 7.27343 31.8645
1.47929 7.27107 31.8498
1.42186 7.2687 31.835
1.30714 7.2639 31.8049
1.24984 7.26148 31.7897
1.07322 7.24555 31.6784
1.01135 7.2345 31.5976
0.0631896 7.22407 31.5735
0.00673998 7.22129 31.5556
-0.105988 7.21568 31.5196
-0.162265 7.21286 31.5014
-0.218484 7.21002 31.4831
-0.274643 7.20716 31.4646
-0.495021 7.21283 31.5213
2.5799 7.4543 32.9317
2.51112 7.39593 32.7258
2.44421 7.38501 32.6463
2.37757 7.37407 32.5665
2.19374 7.31221 32.3371
2.13534 7.31005 32.3238
2.00486 7.28837 32.1649
1.94678 7.28616 32.1511
1.88874 7.28393 32.1373
1.71019 7.22244 31.9077
1.65261 7.22014 31.8934
1.59508 7.21782 31.8789
1.53758 7.21549 31.8642
1.48012 7.21314 31.8495
1.4227 7.21078 31.8346
-0.161294 7.15501 31.5004
-0.217507 7.15218 31.4821
-0.27366 7.14933 31.4636
-0.494007 7.15484 31.5202
-0.606102 7.14897 31.482
-2.54898 7.62085 33.4859
-2.64252 7.55194 33.222
2.5119 7.33684 32.7261
2.44499 7.32604 32.6465
2.37835 7.31521 32.5667
2.31551 7.28542 32.4582
2.25297 7.25582 32.3504
2.19454 7.25368 32.3372
2.13614 7.25153 32.3238
1.71101 7.16449 31.9076
1.65344 7.1622 31.8932
1.5959 7.15989 31.8786
1.53841 7.15756 31.864
1.48095 7.15522 31.8492
1.42354 7.15286 31.8344
1.24622 7.13734 31.724
1.07493 7.13003 31.6775
0.00581207 7.09714 31.4885
-0.104056 7.09996 31.5178
-0.160322 7.09716 31.4995
-0.216529 7.09434 31.4811
-0.272677 7.09151 31.4627
2.57991 7.28848 32.8062
2.51268 7.27776 32.7263
2.19533 7.19516 32.3372
2.13693 7.19301 32.3239
2.00646 7.17178 32.1648
1.94838 7.16958 32.1511
1.48179 7.0973 31.849
1.42437 7.09495 31.8341
1.24706 7.07956 31.7236
1.07081 7.06403 31.6121
0.00676444 7.03937 31.4876
-0.103089 7.04211 31.5169
-0.15935 7.03932 31.4986
-0.215551 7.03652 31.4802
-0.271693 7.0337 31.4617
2.44656 7.20809 32.6469
2.37991 7.1975 32.5671
2.00726 7.11349 32.1648
1.94919 7.11129 32.151
1.89115 7.10908 32.1371
1.71265 7.0486 31.9072
1.65509 7.04632 31.8928
1.59756 7.04402 31.8782
1.54007 7.04171 31.8635
1.48262 7.03938 31.8487
1.42521 7.03704 31.8338
1.24791 7.02178 31.7233
-0.102122 6.98426 31.516
-0.158377 6.98148 31.4977
-0.270708 6.97589 31.4607
-0.603018 6.97513 31.4786
-0.836748 7.0176 31.5905
-2.59802 7.41183 33.3062
2.44734 7.14912 32.6471
2.38069 7.13864 32.5673
2.30687 7.11982 32.4209
2.25535 7.08024 32.3507
2.19693 7.07811 32.3374
2.13853 7.07597 32.3239
2.00805 7.0552 32.1648
1.71347 6.99066 31.907
1.65591 6.98838 31.8926
1.59839 6.98609 31.878
1.5409 6.98379 31.8633
1.48346 6.98147 31.8485
1.42605 6.97913 31.8335
1.24875 6.964 31.7229
1.07252 6.94875 31.6112
0.00867066 6.92384 31.4859
-0.157403 6.92366 31.4967
-0.269723 6.91809 31.4598
-0.381802 6.91247 31.4223
2.64326 7.15924 32.9458
2.51503 7.10051 32.7271
2.44812 7.09016 32.6474
2.19772 7.01959 32.3374
2.13933 7.01745 32.324
2.00885 6.99691 32.1648
1.95079 6.99472 32.151
1.89276 6.99252 32.137
1.59921 6.92816 31.8778
1.54173 6.92587 31.8631
1.48429 6.92355 31.8482
1.42689 6.92122 31.8332
1.2496 6.90623 31.7226
1.18726 6.89593 31.6421
1.07338 6.89111 31.6108
0.00962446 6.86609 31.4851
-0.156429 6.86583 31.4958
-0.268738 6.86029 31.4588
-0.834663 6.90121 31.5882
-2.5982 7.29799 33.3782
2.51581 7.04143 32.7274
2.44891 7.03119 32.6476
2.38226 7.02093 32.5677
2.00965 6.93862 32.1649
1.95159 6.93644 32.151
1.89356 6.93425 32.137
1.71511 6.87478 31.9067
1.65756 6.87252 31.8922
1.60004 6.87024 31.8776
1.48513 6.86564 31.848
1.42773 6.86332 31.833
1.25045 6.84846 31.7223
1.18811 6.83827 31.6418
-0.155455 6.80801 31.4949
-0.267752 6.8025 31.4578
-0.379807 6.79694 31.4203
2.44188 6.96414 32.5809
2.38304 6.96208 32.5679
2.31672 6.95197 32.4882
2.25066 6.94184 32.4083
2.19932 6.90256 32.3376
2.14093 6.90043 32.3241
2.01045 6.88034 32.1649
1.65839 6.81459 31.892
1.60087 6.81232 31.8774
1.48596 6.80774 31.8477
1.42289 6.79772 31.7678
1.25129 6.7907 31.7219
1.18896 6.78063 31.6414
1.07509 6.77584 31.61
0.127262 6.76365 31.5847
0.00867449 6.74288 31.418
-0.15448 6.7502 31.494
-0.266766 6.74472 31.4569
-0.776534 6.78774 31.6058
-2.59837 7.18367 33.4502
2.57651 6.92529 32.7406
2.51738 6.92327 32.7279
2.45047 6.91326 32.6481
2.38382 6.90323 32.5681
2.01125 6.82206 32.1649
1.95319 6.81989 32.151
1.89517 6.81771 32.137
1.42373 6.73994 31.7675
1.2468 6.72534 31.6566
1.18981 6.72298 31.6411
1.07595 6.71821 31.6096
0.00962615 6.68525 31.4171
-0.153505 6.69239 31.4931
-0.775496 6.72955 31.6046
-2.5971 7.12177 33.4485
2.51817 6.86419 32.7282
2.44344 6.84643 32.5814
2.3846 6.84438 32.5684
2.31828 6.8345 32.4886
2.01205 6.76378 32.1649
1.954 6.76162 32.151
1.89598 6.75944 32.1369
1.71359 6.71927 31.9345
1.66004 6.69874 31.8917
1.60253 6.69649 31.877
1.42457 6.68215 31.7672
1.24765 6.66769 31.6563
1.19066 6.66534 31.6408
1.0768 6.66059 31.6093
0.0105782 6.62762 31.4163
-0.152529 6.63459 31.4922
-0.264792 6.62916 31.455
-0.376811 6.62368 31.4173
-0.553105 6.66736 31.5488
-0.609163 6.66455 31.5294
-0.774458 6.67136 31.6035
2.44422 6.78758 32.5816
2.38539 6.78553 32.5686
2.31906 6.77576 32.4888
2.25656 6.74755 32.3801
2.20171 6.72702 32.338
2.14333 6.7249 32.3244
2.01285 6.7055 32.165
1.9548 6.70334 32.151
1.66086 6.64082 31.8916
1.60336 6.63857 31.8769
1.4254 6.62437 31.767
1.3626 6.61469 31.6868
1.24849 6.61004 31.656
1.19151 6.6077 31.6404
1.07766 6.60297 31.6089
0.123906 6.57526 31.4516
0.0115306 6.57 31.4155
-0.151554 6.57679 31.4913
-0.263805 6.57139 31.4541
-2.55016 7.03962 33.6546
-2.59456 6.998 33.4452
2.51973 6.74604 32.7288
2.445 6.72873 32.5819
2.38617 6.72669 32.5689
2.01365 6.64723 32.165
1.9556 6.64507 32.1511
1.89759 6.64291 32.1369
1.42055 6.55932 31.7018
1.36344 6.55702 31.6866
1.24934 6.55239 31.6557
1.19235 6.55006 31.6401
1.13541 6.54771 31.6244
1.07852 6.54535 31.6085
0.124848 6.51762 31.4508
-0.607139 6.54855 31.5274
-0.772381 6.55501 31.6014
2.52052 6.68696 32.7291
2.44579 6.66988 32.5822
2.38695 6.66784 32.5691
2.32063 6.6583 32.4893
2.25457 6.64874 32.4092
2.01445 6.58895 32.1651
1.95641 6.58681 32.1511
1.8984 6.58465 32.137
1.76969 6.56567 31.977
1.71604 6.54534 31.9342
1.65845 6.54312 31.9196
1.60502 6.52276 31.8765
1.42139 6.50165 31.7016
1.36428 6.49936 31.6863
1.25019 6.49475 31.6554
1.1932 6.49243 31.6398
1.13627 6.49009 31.624
1.07937 6.48773 31.6081
0.12579 6.45998 31.4501
0.0134364 6.45478 31.4139
-0.0426541 6.45216 31.3957
-0.261829 6.45587 31.4522
-0.323727 6.47141 31.4618
-0.379737 6.46871 31.4428
-0.550087 6.49332 31.5459
-0.606126 6.49056 31.5264
-0.771342 6.49684 31.6003
-2.55638 6.93542 33.6852
2.44657 6.61103 32.5825
2.38774 6.609 32.5694
2.32141 6.59957 32.4895
2.25535 6.59012 32.4094
2.20047 6.56977 32.3671
2.14205 6.56767 32.3535
2.01525 6.53068 32.1652
1.95721 6.52854 32.1511
1.8992 6.52639 32.137
1.60585 6.46485 31.8764
1.42222 6.44398 31.7014
1.36512 6.44171 31.6861
1.25103 6.43711 31.6551
1.19405 6.4348 31.6395
1.13712 6.43247 31.6237
1.08023 6.43012 31.6078
0.126733 6.40235 31.4493
0.0143897 6.39717 31.4131
-0.770303 6.43868 31.5992
-2.60813 6.85247 33.5068
2.5812 6.57082 32.7426
2.52209 6.56882 32.7298
2.44735 6.55218 32.5828
2.38852 6.55015 32.5697
2.01605 6.47241 32.1652
1.95801 6.47027 32.1512
1.90001 6.46813 32.137
1.3089 6.38177 31.6704
1.25188 6.37948 31.6548
1.1949 6.37717 31.6392
1.13797 6.37485 31.6234
1.08109 6.37252 31.6074
-0.548073 6.37732 31.5439
-0.769263 6.38052 31.5981
2.44813 6.49334 32.5831
2.38931 6.49131 32.57
2.32298 6.48211 32.49
2.25692 6.47289 32.4099
1.90081 6.40987 32.137
1.77211 6.39159 31.9769
1.71445 6.38941 31.9623
1.66091 6.36924 31.9193
1.60751 6.34905 31.8761
1.42389 6.32866 31.7009
1.36679 6.3264 31.6856
1.30974 6.32413 31.6701
1.25272 6.32184 31.6546
1.19575 6.31954 31.6389
1.13883 6.31723 31.623
1.08195 6.31491 31.6071
0.128619 6.2871 31.4478
0.0724291 6.28454 31.4298
0.0162971 6.28198 31.4116
-0.0397768 6.2794 31.3932
-0.151748 6.27421 31.3562
-0.264717 6.3007 31.478
-0.326675 6.31612 31.4876
-0.382717 6.31346 31.4685
-0.547066 6.31933 31.543
-2.60564 6.72853 33.5037
2.39009 6.43247 32.5703
2.32376 6.42338 32.4903
2.2577 6.41428 32.4101
2.1992 6.41222 32.3965
2.14443 6.39202 32.354
2.0823 6.40805 32.369
2.01766 6.35587 32.1654
1.95962 6.35375 32.1513
1.90162 6.35162 32.1371
1.42473 6.271 31.7007
1.36763 6.26875 31.6854
1.31058 6.26649 31.6699
1.25357 6.26421 31.6543
1.1966 6.26192 31.6386
1.13968 6.25962 31.6227
1.08281 6.25731 31.6067
0.129562 6.22948 31.4471
0.0733777 6.22694 31.429
0.0172512 6.22439 31.4108
-0.546058 6.26134 31.542
-0.767183 6.26423 31.596
-2.6044 6.66658 33.5021
2.65255 6.44632 32.9508
2.5802 6.41186 32.7731
2.52444 6.39161 32.7308
2.44969 6.37564 32.5837
2.39087 6.37363 32.5706
2.32455 6.36465 32.4905
2.01846 6.2976 32.1655
1.96043 6.29549 32.1514
1.90243 6.29336 32.1371
1.83142 6.27769 31.9914
1.77373 6.27554 31.9769
1.31142 6.20885 31.6697
1.25442 6.20658 31.654
1.19746 6.20431 31.6383
1.14054 6.20201 31.6224
-0.380752 6.19785 31.4668
-0.545051 6.20336 31.541
-0.766143 6.20609 31.5949
2.52523 6.33254 32.7312
2.45048 6.3168 32.5841
2.39166 6.31479 32.5709
2.32533 6.30593 32.4908
2.25927 6.29706 32.4106
1.96123 6.23723 32.1515
1.90324 6.23511 32.1372
1.83223 6.21967 31.9914
1.77453 6.21752 31.9769
1.71688 6.21536 31.9622
1.65926 6.21319 31.9474
1.60396 6.16884 31.8108
1.5407 6.16012 31.7308
1.4264 6.15569 31.7004
1.36931 6.15346 31.685
1.31227 6.15122 31.6694
1.25526 6.14896 31.6538
1.19831 6.14669 31.638
1.14139 6.14441 31.6221
1.08452 6.14211 31.6061
1.02308 6.15755 31.6179
0.966248 6.15523 31.6016
0.909468 6.1529 31.5853
0.852736 6.15056 31.5688
0.796053 6.1482 31.5521
0.74429 6.1281 31.5075
0.682833 6.14346 31.5185
0.626299 6.14107 31.5016
0.569816 6.13867 31.4845
0.518454 6.11852 31.4394
0.40068 6.13139 31.4325
0.238594 6.13707 31.5099
0.131449 6.11426 31.4457
0.0752755 6.11174 31.4275
0.0191598 6.10922 31.4092
-0.0368975 6.10668 31.3909
-0.148835 6.10158 31.3537
-0.323744 6.14266 31.485
-0.379768 6.14005 31.4659
-0.544043 6.14538 31.5401
-1.16723 6.19202 31.7781
-2.54891 6.56196 33.676
2.39244 6.25595 32.5712
2.32612 6.2472 32.4911
2.26005 6.23845 32.4109
2.20156 6.2364 32.3972
2.02006 6.18108 32.1657
1.96203 6.17898 32.1515
1.90404 6.17686 32.1372
1.37015 6.09582 31.6848
1.31311 6.09358 31.6692
1.25611 6.09134 31.6535
1.19916 6.08908 31.6377
1.14225 6.08681 31.6218
1.08538 6.08452 31.6058
1.02856 6.08223 31.5896
0.971788 6.07992 31.5733
0.915062 6.0776 31.557
0.858384 6.07527 31.5404
0.801754 6.07293 31.5238
0.745174 6.07057 31.507
0.688643 6.06821 31.4902
0.632163 6.06583 31.4732
0.575734 6.06344 31.4561
0.519357 6.06104 31.4388
0.406761 6.0562 31.404
0.244899 6.06161 31.481
0.132393 6.05665 31.445
-0.543034 6.08741 31.5391
-0.764061 6.08983 31.5928
2.65487 6.2681 32.9523
2.57916 6.25258 32.8038
2.5268 6.2144 32.7319
2.45204 6.19911 32.5847
2.39323 6.19711 32.5715
2.3269 6.18848 32.4914
2.02086 6.12282 32.1658
1.96284 6.12072 32.1516
1.89821 6.11217 32.0716
1.83384 6.10362 31.9915
1.77615 6.10149 31.9769
1.7185 6.09934 31.9622
0.972655 6.02235 31.573
0.915933 6.02004 31.5566
0.85926 6.01772 31.54
0.802634 6.01539 31.5234
0.689532 6.01069 31.4897
0.633056 6.00833 31.4727
0.576632 6.00595 31.4555
-0.321789 6.02704 31.4833
-0.377802 6.02446 31.4642
-0.542026 6.02945 31.5382
-0.653938 6.02417 31.4987
-2.60485 6.43433 33.6484
2.45282 6.14027 32.5851
2.39401 6.13827 32.5718
2.32768 6.12976 32.4917
2.26162 6.12123 32.4114
1.89901 6.05404 32.0717
1.83464 6.04559 31.9916
1.77696 6.04347 31.977
1.71931 6.04134 31.9622
1.6617 6.03919 31.9474
1.6125 6.0017 31.8754
1.54319 5.98713 31.7304
1.42891 5.98275 31.6998
1.37183 5.98055 31.6844
1.3148 5.97833 31.6688
1.25781 5.9761 31.653
1.20086 5.97386 31.6372
1.14396 5.97161 31.6212
1.0871 5.96935 31.6052
1.03029 5.96707 31.589
0.973522 5.96479 31.5726
0.860135 5.96018 31.5396
0.803514 5.95786 31.523
0.690421 5.95319 31.4892
0.63395 5.95083 31.4722
0.57753 5.94847 31.455
0.521162 5.94609 31.4378
0.408585 5.9413 31.4028
0.352378 5.93889 31.3852
0.13428 5.94146 31.4436
0.0781232 5.93899 31.4253
0.0220239 5.93651 31.407
-0.0396628 5.95168 31.4168
-0.15741 5.96432 31.4078
-0.320812 5.96924 31.4825
-0.541017 5.97149 31.5373
-2.72017 6.36576 33.5973
2.3948 6.07943 32.5722
2.32847 6.07104 32.492
2.2624 6.06263 32.4117
2.20392 6.0606 32.398
2.13861 6.01042 32.1942
2.02247 6.0063 32.1661
1.96445 6.00422 32.1518
1.89982 5.9959 32.0718
1.37267 5.92291 31.6842
1.31564 5.92071 31.6686
1.25865 5.91849 31.6528
1.20171 5.91626 31.637
1.14481 5.91402 31.621
1.08796 5.91176 31.6049
1.03115 5.9095 31.5886
0.974389 5.90722 31.5723
0.861011 5.90264 31.5393
0.804394 5.90033 31.5225
0.69131 5.89568 31.4888
0.634843 5.89334 31.4717
0.578428 5.89099 31.4545
0.522065 5.88862 31.4372
0.465755 5.88625 31.4198
0.409498 5.88386 31.4023
0.353295 5.88146 31.3846
-0.540009 5.91354 31.5363
-0.760938 5.91549 31.5897
2.64895 6.08344 32.8859
2.58148 6.07504 32.8052
2.51322 6.02456 32.599
2.45439 6.02258 32.5858
2.39558 6.0206 32.5725
2.32925 6.01231 32.4923
2.08132 5.9501 32.1804
2.02327 5.94804 32.1662
1.96525 5.94597 32.152
1.89397 5.93165 32.0062
1.83625 5.92956 31.9917
1.77857 5.92745 31.977
1.72093 5.92533 31.9623
0.975256 5.84967 31.572
-0.155501 5.84908 31.4063
-0.318856 5.85365 31.4809
-0.539 5.85559 31.5354
-2.61871 6.28695 33.7113
-2.73546 6.28063 33.6615
-2.78472 6.2579 33.6028
2.514 5.96571 32.5994
2.45517 5.96374 32.5862
2.39637 5.96176 32.5729
2.32248 5.94742 32.4259
2.26397 5.94542 32.4123
1.96606 5.88772 32.1521
1.89477 5.87363 32.0063
1.83706 5.87154 31.9918
1.77938 5.86944 31.9771
1.60056 5.85711 31.8669
1.54146 5.83157 31.7582
1.43142 5.80983 31.6994
1.37435 5.80765 31.6839
1.31733 5.80547 31.6682
1.26035 5.80327 31.6524
1.20341 5.80106 31.6365
1.14652 5.79884 31.6205
1.03288 5.79436 31.588
0.976124 5.79211 31.5716
0.862762 5.78757 31.5385
0.806154 5.78529 31.5217
0.693087 5.78068 31.4879
0.63663 5.77836 31.4708
0.523871 5.7737 31.4362
0.46757 5.77135 31.4187
0.411323 5.76899 31.4012
0.35513 5.76662 31.3835
0.24291 5.76185 31.3477
0.0809715 5.76627 31.4232
0.0136453 5.79885 31.4616
-0.0424785 5.7964 31.443
-0.154547 5.79147 31.4056
-0.317878 5.79586 31.4801
-0.537991 5.79765 31.5345
-0.993887 5.83652 31.6987
2.6505 5.96485 32.887
2.39715 5.90293 32.5732
2.32326 5.88881 32.4262
2.26475 5.88681 32.4126
2.19901 5.87877 32.3324
2.13727 5.85317 32.2234
2.08292 5.83358 32.1807
2.02487 5.83153 32.1665
1.96686 5.82947 32.1522
1.89557 5.8156 32.0064
1.83786 5.81352 31.9918
1.2612 5.74566 31.6522
1.20426 5.74346 31.6363
1.14738 5.74125 31.6202
1.03374 5.7368 31.5877
0.976991 5.73456 31.5713
0.863637 5.73004 31.5381
0.807034 5.72777 31.5214
0.693976 5.72319 31.4875
0.637524 5.72088 31.4703
0.524774 5.71624 31.4357
0.468478 5.71391 31.4182
0.412236 5.71156 31.4006
-0.316899 5.73808 31.4793
-0.536982 5.73971 31.5336
-0.648831 5.7346 31.4939
-0.770724 5.77665 31.6451
2.65127 5.90555 32.8875
2.58379 5.89751 32.8067
2.51557 5.84802 32.6003
2.45673 5.84606 32.587
2.08371 5.77532 32.1809
1.89637 5.75758 32.0065
1.83867 5.75551 31.9919
1.781 5.75343 31.9772
-0.040591 5.68113 31.4417
-0.152637 5.67626 31.4041
-0.315921 5.68031 31.4785
-0.535974 5.68178 31.5327
-0.991774 5.71981 31.6966
-2.55654 6.10321 33.7318
-2.61502 6.10014 33.707
-2.67341 6.09706 33.6821
-2.73171 6.09397 33.657
-2.78671 6.08379 33.5552
2.45752 5.78722 32.5874
2.32483 5.77159 32.4269
2.26632 5.7696 32.4132
1.89718 5.69956 32.0066
1.83947 5.6975 31.992
1.78181 5.69542 31.9773
1.59697 5.67784 31.8015
1.53969 5.67573 31.7863
1.48674 5.65634 31.7427
1.42959 5.6542 31.7272
1.37248 5.65205 31.7116
1.31986 5.63263 31.6677
1.26289 5.63046 31.6518
1.20597 5.62828 31.6358
1.14909 5.62609 31.6197
1.03546 5.62168 31.5872
0.978725 5.61946 31.5707
0.865389 5.61499 31.5374
0.808794 5.61274 31.5206
0.695754 5.60821 31.4866
0.639311 5.60593 31.4694
0.52658 5.60134 31.4347
0.470294 5.59903 31.4172
0.414061 5.59671 31.3995
0.357883 5.59438 31.3818
0.240304 5.60696 31.3739
0.0726268 5.6283 31.4781
-0.0396472 5.6235 31.441
-0.0956948 5.62108 31.4222
-0.151682 5.61866 31.4034
-0.314943 5.62253 31.4777
-0.768678 5.66027 31.6432
-0.990718 5.66147 31.6956
-2.61379 6.03789 33.7056
2.66107 5.79286 32.9565
2.32561 5.71298 32.4273
2.2671 5.711 32.4136
2.20136 5.70331 32.3333
2.14338 5.66082 32.1955
2.08531 5.6588 32.1813
1.89798 5.64154 32.0068
1.84028 5.63949 31.9921
1.78261 5.63742 31.9774
1.03633 5.56412 31.5869
0.979592 5.56192 31.5704
0.866264 5.55747 31.5371
0.805242 5.54984 31.4556
0.640204 5.54846 31.469
0.527483 5.54389 31.4342
-0.313965 5.56477 31.4769
-0.42583 5.55985 31.438
-0.535696 5.56041 31.4648
-0.645766 5.56092 31.4911
-0.767656 5.60208 31.6423
-2.61256 5.97564 33.7042
-2.72922 5.96957 33.6541
-2.7842 5.9597 33.5522
2.65358 5.72767 32.8892
2.58611 5.71997 32.8083
2.5179 5.67149 32.6016
2.32639 5.65438 32.4277
2.08611 5.60055 32.1815
1.95652 5.58556 32.0215
1.89878 5.58352 32.0069
1.84108 5.58148 31.9922
1.78342 5.57942 31.9775
1.5986 5.56232 31.8015
-0.0377595 5.50825 31.4397
-0.093796 5.50586 31.4209
-0.149772 5.50347 31.402
-0.312986 5.507 31.4761
-0.424839 5.50212 31.4372
-0.988605 5.5448 31.6935
-2.72797 5.90738 33.6526
-2.78614 5.90435 33.6274
2.45986 5.61071 32.5887
2.32717 5.59577 32.428
2.26867 5.5938 32.4143
1.95731 5.52754 32.0216
1.89958 5.52551 32.0071
1.84189 5.52347 31.9924
1.78423 5.52142 31.9776
1.59941 5.50457 31.8015
1.54214 5.50248 31.7862
1.48491 5.50038 31.7708
1.42772 5.49827 31.7552
1.37498 5.47905 31.7113
1.31793 5.47692 31.6955
1.20852 5.45552 31.6353
1.15165 5.45337 31.6191
0.981326 5.44684 31.5699
0.806996 5.43504 31.4548
0.641991 5.43353 31.4682
0.473017 5.42674 31.4157
0.416799 5.42447 31.398
0.360636 5.42218 31.3801
0.237649 5.45179 31.4004
0.0754258 5.45534 31.4763
-0.0368156 5.45063 31.439
-0.0928466 5.44826 31.4202
-0.148817 5.44588 31.4013
-0.312008 5.44925 31.4753
-2.55693 5.86736 33.8806
-2.72672 5.84519 33.6512
-2.78488 5.84219 33.6259
2.65513 5.60908 32.8903
2.58765 5.60161 32.8093
2.38648 5.53911 32.4421
2.32795 5.53716 32.4284
2.26945 5.5352 32.4146
2.20371 5.52786 32.3342
2.142 5.50327 32.225
2.08771 5.48403 32.182
1.95811 5.46951 32.0218
1.90038 5.46749 32.0072
1.84269 5.46546 31.9925
1.78504 5.46342 31.9777
0.977413 5.38422 31.5049
-0.0918972 5.39066 31.4195
-0.147862 5.3883 31.4006
-0.31103 5.39149 31.4746
-0.422859 5.38668 31.4356
-0.540597 5.39906 31.4246
-0.655375 5.42193 31.5462
-2.72547 5.78302 33.6497
-2.78363 5.78004 33.6244
2.6559 5.54978 32.8909
2.58842 5.54243 32.8099
2.52024 5.49496 32.603
2.38726 5.4805 32.4425
2.32873 5.47856 32.4288
2.01668 5.4135 32.0365
1.95891 5.41149 32.022
1.90119 5.40948 32.0074
1.8435 5.40745 31.9926
1.77946 5.40031 31.9124
1.60104 5.38906 31.8016
-0.034928 5.33541 31.4377
-0.0909478 5.33307 31.4189
-0.146907 5.33072 31.3999
-0.310052 5.33374 31.4738
-0.421868 5.32896 31.4348
-0.985437 5.36985 31.6905
-2.78237 5.7179 33.6229
2.38804 5.42189 32.4429
2.32951 5.41995 32.4292
2.27102 5.418 32.4154
2.21256 5.41604 32.4014
1.8443 5.34945 31.9928
1.78026 5.34242 31.9125
1.71649 5.33539 31.8321
1.60185 5.3313 31.8017
1.54458 5.32924 31.7863
1.48736 5.32718 31.7707
1.43019 5.3251 31.7551
1.37748 5.30606 31.711
1.32044 5.30396 31.6952
1.15421 5.28066 31.6185
0.974357 5.26451 31.4397
0.809627 5.26288 31.4538
0.640566 5.2563 31.4023
0.470502 5.27145 31.4425
0.408961 5.28616 31.4529
0.352713 5.28391 31.435
0.296521 5.28166 31.417
0.240385 5.27939 31.3988
0.184306 5.27712 31.3805
-0.0339843 5.2778 31.4371
-0.0899985 5.27548 31.4182
-0.145952 5.27315 31.3992
-0.653368 5.30598 31.5445
-0.765045 5.30111 31.5039
-1.22092 5.34665 31.7996
-2.72297 5.65869 33.6469
-2.78111 5.65576 33.6215
-2.83252 5.64052 33.4429
2.65744 5.43119 32.8921
2.44737 5.3652 32.457
2.38882 5.36328 32.4434
2.33029 5.36134 32.4296
2.2718 5.3594 32.4158
2.19878 5.34736 32.2688
2.14437 5.32833 32.2259
2.08308 5.30435 32.1171
2.01827 5.29744 32.0369
1.96051 5.29545 32.0224
1.90279 5.29345 32.0077
1.8451 5.29145 31.9929
1.78107 5.28454 31.9126
1.7173 5.27762 31.8322
-0.0330407 5.2202 31.4365
-0.0890493 5.2179 31.4176
-0.144997 5.21558 31.3986
-0.308096 5.21826 31.4723
-0.419888 5.21355 31.4332
-0.543809 5.24295 31.4508
-0.652364 5.24802 31.5437
-1.21984 5.28809 31.7985
-2.77985 5.59364 33.62
-2.83457 5.5847 33.5179
2.64994 5.36678 32.8248
2.59073 5.3649 32.8116
2.52258 5.31842 32.6045
2.44815 5.30658 32.4574
2.07685 5.24138 32.0516
2.01906 5.23941 32.0372
1.96131 5.23743 32.0226
1.90359 5.23544 32.0079
1.84591 5.23344 31.9931
1.78187 5.22665 31.9128
1.7181 5.21985 31.8323
1.60347 5.2158 31.8018
1.54621 5.21376 31.7863
1.489 5.21171 31.7708
1.43183 5.20966 31.7551
1.3747 5.20759 31.7393
1.31762 5.20552 31.7234
0.298334 5.16671 31.416
0.242208 5.16448 31.3978
0.18614 5.16224 31.3795
0.0741767 5.15772 31.3425
-0.0320971 5.16261 31.4359
-0.0881002 5.16032 31.4169
-0.144042 5.15802 31.3979
-0.307118 5.16053 31.4716
-0.651361 5.19006 31.5429
2.44892 5.24796 32.4579
2.20783 5.19668 32.2118
1.90439 5.17743 32.0081
1.84671 5.17544 31.9933
1.78268 5.16877 31.9129
1.71891 5.16209 31.8324
1.60428 5.15805 31.8019
1.54703 5.15602 31.7864
1.48982 5.15399 31.7708
1.37553 5.14989 31.7393
1.31844 5.14782 31.7233
1.14703 5.12015 31.5813
0.97694 5.09258 31.439
0.807805 5.0862 31.3882
0.643236 5.08428 31.4011
0.46794 5.11586 31.4695
0.355418 5.11146 31.4337
0.299241 5.10925 31.4155
0.24312 5.10703 31.3973
0.187056 5.1048 31.379
0.075104 5.10032 31.3419
-0.0311538 5.10501 31.4353
-0.0871512 5.10274 31.4163
-0.143087 5.10046 31.3972
-0.650358 5.1321 31.5421
-0.761995 5.12734 31.5013
-0.871306 5.132 31.5939
-1.2177 5.17098 31.7965
-2.62616 5.52733 33.9159
-2.71922 5.47225 33.6426
-2.77733 5.4694 33.6172
-2.83204 5.46078 33.515
2.65975 5.2533 32.894
2.15054 5.13647 32.198
2.08547 5.12992 32.1179
2.02065 5.12336 32.0377
1.9629 5.1214 32.0231
1.90519 5.11942 32.0083
1.84752 5.11744 31.9935
1.78348 5.11089 31.9131
1.71971 5.10432 31.8325
0.187973 5.04737 31.3785
0.0760311 5.04292 31.3413
-0.0302105 5.04742 31.4347
-0.0862024 5.04517 31.4157
-0.142133 5.0429 31.3966
-0.423039 5.05738 31.4596
-0.540854 5.06964 31.4485
-2.62494 5.46476 33.9147
-2.83078 5.39884 33.5136
2.66052 5.194 32.8947
2.57685 5.17786 32.6783
2.52492 5.14189 32.6061
2.45047 5.13073 32.4589
2.09329 5.07627 32.1839
2.02145 5.06534 32.0379
1.9637 5.06338 32.0233
1.84832 5.05944 31.9937
1.78429 5.053 31.9132
1.72052 5.04656 31.8327
1.66319 5.04456 31.8174
1.6059 5.04256 31.802
1.54866 5.04055 31.7865
1.49146 5.03854 31.7709
1.37718 5.03448 31.7392
0.357221 4.99651 31.4328
0.301053 4.99433 31.4146
0.244943 4.99213 31.3964
0.188889 4.98994 31.378
0.0769581 4.98552 31.3408
-0.0852537 4.9876 31.4151
-0.759963 5.01152 31.4996
-0.869235 5.0158 31.5921
-2.62373 5.40219 33.9134
-2.68239 5.39939 33.888
1.9645 5.00537 32.0236
1.90679 5.00341 32.0088
1.84912 5.00145 31.9939
1.78509 4.99512 31.9134
1.72132 4.98879 31.8328
1.664 4.98681 31.8175
1.60672 4.98482 31.8021
1.54947 4.98282 31.7866
1.49227 4.98081 31.7709
1.378 4.97677 31.7393
1.32093 4.97474 31.7232
1.14443 4.94343 31.5162
1.0925 4.92481 31.4717
0.974742 4.93724 31.4663
0.918277 4.93515 31.4494
0.805495 4.93097 31.4153
0.74918 4.92887 31.3981
0.636706 4.92464 31.3633
0.470614 4.94335 31.4684
0.358122 4.93904 31.4324
0.301959 4.93687 31.4142
0.245854 4.93469 31.3959
0.189806 4.93251 31.3775
0.077885 4.92812 31.3403
-0.0843053 4.93003 31.4145
-0.538884 4.95413 31.447
-0.758946 4.95362 31.4988
-1.21449 4.99536 31.7935
-2.68117 5.33686 33.8867
-2.73973 5.33408 33.8612
-2.79167 5.32026 33.6803
-2.84976 5.31747 33.6546
2.65378 5.07085 32.828
1.9653 4.94735 32.0238
1.90759 4.9454 32.009
1.84993 4.94345 31.9941
1.78589 4.93724 31.9136
1.72213 4.93103 31.833
1.66481 4.92906 31.8177
1.60753 4.92708 31.8022
0.190722 4.87509 31.377
0.0788117 4.87073 31.3397
-0.083357 4.87247 31.4139
-0.195122 4.86804 31.3754
-0.306635 4.86357 31.3365
-0.426241 4.90092 31.4862
-0.482104 4.89865 31.4663
-0.5379 4.89638 31.4462
2.65454 5.01166 32.8287
2.57915 5.00098 32.6801
2.4528 4.95487 32.4605
1.90839 4.8874 32.0093
1.85073 4.88545 31.9943
1.7867 4.87936 31.9138
1.72293 4.87327 31.8331
1.66561 4.87131 31.8178
1.60834 4.86934 31.8023
1.5511 4.86736 31.7868
1.49391 4.86537 31.7711
1.31714 4.85527 31.6581
0.472396 4.82836 31.4677
0.359923 4.82411 31.4316
0.303771 4.82197 31.4133
0.191638 4.81767 31.3765
0.135659 4.81551 31.3579
0.0797382 4.81335 31.3392
0.0238776 4.81117 31.3204
-0.138317 4.81272 31.3941
-0.756915 4.83783 31.4971
-0.872748 4.85843 31.6186
-2.67873 5.21181 33.8841
-2.73726 5.20909 33.8586
2.65531 4.95247 32.8294
2.45357 4.89625 32.461
1.79241 4.8118 31.9165
1.72374 4.81551 31.8333
1.66642 4.81356 31.818
1.60915 4.8116 31.8025
1.55191 4.80963 31.7869
1.49472 4.80765 31.7711
1.31797 4.79769 31.6581
1.1423 4.78768 31.5439
1.08565 4.78566 31.5274
0.972501 4.7816 31.4938
0.915998 4.77955 31.4769
0.808093 4.75905 31.4146
0.746789 4.77339 31.4253
0.634242 4.76924 31.3904
0.578048 4.76715 31.3727
0.473287 4.77087 31.4673
0.304676 4.76452 31.4129
0.192554 4.76026 31.3761
0.142186 4.74164 31.3291
-0.424297 4.78536 31.4848
-0.480147 4.78313 31.4649
-0.535931 4.78089 31.4448
-0.700154 4.78221 31.5169
-0.755899 4.77994 31.4963
-0.990017 4.81251 31.6049
-1.22527 4.8538 31.8499
-2.904 5.12824 33.6246
2.65608 4.89328 32.8301
1.72454 4.75775 31.8335
1.66723 4.75581 31.8181
1.60996 4.75386 31.8026
1.55273 4.7519 31.787
-0.13641 4.69765 31.3929
-0.192244 4.69548 31.3736
-0.31573 4.72415 31.3913
-0.423325 4.72759 31.4842
-0.534947 4.72316 31.4441
-0.988987 4.75437 31.604
-2.67628 5.0868 33.8816
-2.7348 5.08412 33.856
2.65684 4.83409 32.8308
2.58144 4.82409 32.6821
2.51369 4.78086 32.4758
2.45512 4.77901 32.4621
1.66804 4.69806 31.8183
1.61077 4.69612 31.8028
1.55354 4.69417 31.7871
1.49636 4.69222 31.7713
1.31962 4.68254 31.6581
0.5798 4.65256 31.3722
0.467592 4.64843 31.3364
-0.698137 4.66641 31.5153
-0.753869 4.66418 31.4947
-0.932172 4.69851 31.6243
-0.987957 4.69624 31.6032
-2.90149 5.00398 33.6218
2.65761 4.7749 32.8315
1.61588 4.62207 31.7744
1.55435 4.63645 31.7872
1.49138 4.63083 31.7063
1.315 4.6213 31.593
1.25822 4.61934 31.5767
1.1448 4.61539 31.5438
1.08817 4.6134 31.5271
1.03158 4.61141 31.5104
0.975038 4.60942 31.4935
0.918547 4.60741 31.4765
0.862106 4.6054 31.4593
0.805716 4.60339 31.4421
0.749377 4.60137 31.4247
0.636856 4.5973 31.3896
0.580676 4.59526 31.3719
0.473751 4.57492 31.308
0.417784 4.57287 31.2899
-0.313821 4.60899 31.3901
-0.477214 4.60988 31.4628
-0.532979 4.6077 31.4427
-0.931149 4.64036 31.6235
-0.986927 4.63811 31.6023
-2.90024 4.94186 33.6205
2.65837 4.7157 32.8322
-0.312867 4.55141 31.3895
-0.476237 4.55214 31.4622
-0.531996 4.54998 31.442
-0.930126 4.58221 31.6227
-0.985897 4.57999 31.6015
2.65914 4.65651 32.833
2.58373 4.6472 32.6841
2.52043 4.6251 32.5736
2.45744 4.60315 32.4638
1.31664 4.50638 31.5931
1.25987 4.50444 31.5768
1.14647 4.50054 31.5437
1.08984 4.49858 31.527
1.03326 4.49661 31.5102
0.976727 4.49464 31.4933
0.920245 4.49266 31.4762
0.863812 4.49068 31.459
0.807431 4.48869 31.4417
0.751101 4.4867 31.4243
0.694823 4.4847 31.4068
-0.47526 4.49441 31.4615
-0.531013 4.49226 31.4413
-0.701559 4.50922 31.542
-0.757322 4.50705 31.5213
-0.929104 4.52408 31.6219
-0.984867 4.52187 31.6007
-2.89423 4.81322 33.5408
1.38994 4.44138 31.7111
1.32779 4.4426 31.661
1.26069 4.44699 31.5768
1.1473 4.44311 31.5437
1.09068 4.44117 31.527
1.0341 4.43921 31.5101
0.977572 4.43726 31.4932
0.921093 4.43529 31.4761
0.864665 4.43332 31.4589
0.813281 4.41527 31.4134
0.757006 4.41329 31.396
0.705876 4.39522 31.3503
-0.474284 4.43667 31.4609
-0.53003 4.43455 31.4406
-0.928081 4.46594 31.6211
-0.983838 4.46376 31.5999
-2.89649 4.75555 33.6165
2.66067 4.53812 32.8345
2.58525 4.52927 32.6855
0.875416 4.34391 31.4024
-0.310006 4.37872 31.3878
-0.473307 4.37895 31.4602
-0.927059 4.40781 31.6203
-0.982809 4.40565 31.5991
-2.69318 4.75673 34.0999
-2.89173 4.6893 33.5381
2.6532 4.47551 32.7675
2.58601 4.4703 32.6863
1.14897 4.32827 31.5437
1.09235 4.32635 31.5269
1.03578 4.32442 31.51
0.97926 4.32249 31.493
-0.309053 4.32116 31.3872
-0.472331 4.32122 31.4596
-0.528065 4.31913 31.4393
-0.698564 4.33544 31.5399
-0.754307 4.33332 31.5191
-0.926038 4.34969 31.6196
-0.981781 4.34755 31.5983
-1.21686 4.38495 31.8428
-2.89398 4.63138 33.6138
2.66219 4.41973 32.836
2.08169 4.34508 32.1145
1.15451 4.25493 31.5155
1.09794 4.25302 31.4987
1.04143 4.25111 31.4818
-0.308101 4.2636 31.3867
-0.471356 4.2635 31.459
-0.527084 4.26143 31.4387
-0.925016 4.29157 31.6188
-0.980753 4.28945 31.5975
-1.21581 4.32637 31.842
-2.68773 4.62696 34.019
-2.89273 4.5693 33.6125
2.65472 4.35733 32.7691
2.0895 4.28999 32.1813
-0.304982 4.20898 31.4524
-0.923996 4.23345 31.618
-0.979725 4.23135 31.5967
-2.68349 4.56032 33.9392
-2.74203 4.55789 33.9132
-2.89148 4.50723 33.6112
-2.94925 4.5048 33.5849
2.64724 4.29516 32.7021
2.58829 4.29339 32.6885
2.52144 4.28855 32.6073
2.0254 4.227 32.1006
-0.306197 4.14851 31.3856
-0.469406 4.14808 31.4578
-0.525121 4.14605 31.4374
-0.702066 4.17783 31.5669
-0.75784 4.17577 31.546
-2.68838 4.50534 34.0954
-2.94799 4.44276 33.5836
-3.00565 4.44035 33.557
2.65624 4.23915 32.7707
2.08402 4.17068 32.1159
1.96163 4.16426 32.0201
-0.305245 4.09096 31.3851
-0.468432 4.09037 31.4572
-0.524141 4.08836 31.4368
-0.921955 4.11724 31.6166
-0.977671 4.11518 31.5952
-2.68414 4.43885 34.0156
-2.73962 4.43281 33.9109
2.657 4.18006 32.7715
2.58981 4.17545 32.69
2.09579 4.09932 32.1535
2.03093 4.09487 32.0728
1.96644 4.09038 31.9918
1.90218 4.08595 31.9111
1.84062 4.09996 31.9241
-0.467458 4.03267 31.4566
-0.75585 4.05989 31.5447
-0.81154 4.05788 31.5236
-0.920936 4.05914 31.6158
-0.976644 4.0571 31.5944
-2.6799 4.37263 33.9359
-2.73842 4.37028 33.9098
-2.88774 4.32107 33.6074
-2.94548 4.31872 33.581
-3.00311 4.31637 33.5544
2.65776 4.12097 32.7723
2.59057 4.11647 32.6908
2.52292 4.07729 32.4837
1.90702 4.01236 31.8831
-0.466485 3.97497 31.456
-0.522181 3.973 31.4356
-0.577809 3.97102 31.4151
-0.699102 4.00396 31.565
-0.754856 4.00196 31.544
-0.810539 3.99996 31.523
-2.94422 4.25671 33.5797
-3.00185 4.25439 33.5531
2.65851 4.06188 32.7732
-0.809539 3.94206 31.5223
-0.974593 3.94096 31.5929
-2.67752 4.24754 33.9337
-2.73602 4.24525 33.9076
2.65927 4.00278 32.774
2.59208 3.99852 32.6925
2.08712 3.93813 32.118
2.03328 3.92066 32.0742
1.96879 3.91652 31.9931
1.9086 3.8968 31.8839
1.85121 3.89503 31.8685
1.79386 3.89325 31.8531
1.73655 3.89147 31.8374
1.6585 3.9163 31.7472
0.478425 3.86478 31.4259
0.418655 3.8607 31.3423
-0.697128 3.88806 31.5638
-0.808539 3.88415 31.5217
-0.91788 3.88487 31.6137
-2.68238 4.19126 34.09
-2.73481 4.18274 33.9065
-2.90252 4.16974 33.6712
-2.94171 4.13271 33.5771
-2.99931 4.13045 33.5505
2.66003 3.94368 32.7749
2.59284 3.93954 32.6933
2.52599 3.93542 32.6119
1.90938 3.83902 31.8843
1.852 3.83726 31.8689
1.79465 3.83549 31.8534
1.73735 3.83373 31.8378
1.67393 3.82978 31.7568
0.592902 3.79342 31.369
0.536841 3.79158 31.3508
0.480836 3.78975 31.3325
0.424888 3.78791 31.3141
-0.407823 3.8038 31.4748
-0.463569 3.80189 31.4544
-0.587594 3.82955 31.4708
-0.696142 3.83012 31.5632
-0.807539 3.82625 31.521
-2.67816 4.12547 34.0102
-2.73361 4.12024 33.9054
1.67473 3.77216 31.7571
1.61158 3.76833 31.676
0.593772 3.73616 31.3689
0.537716 3.73434 31.3507
0.481716 3.73253 31.3323
-0.406858 3.7461 31.4743
-0.806541 3.76836 31.5204
-0.915846 3.76871 31.6124
-2.73241 4.05774 33.9043
2.66154 3.82549 32.7766
2.59435 3.82158 32.695
2.08943 3.76372 32.1196
2.03161 3.76199 32.1046
1.98195 3.72916 32.0317
1.91096 3.72346 31.8852
1.85358 3.72172 31.8698
1.79624 3.71998 31.8542
1.73894 3.71823 31.8385
1.67553 3.71453 31.7575
1.61238 3.71083 31.6763
1.55543 3.70908 31.6602
1.49853 3.70733 31.644
0.70691 3.6825 31.4048
0.650749 3.6807 31.3868
0.594642 3.67891 31.3687
0.53859 3.67711 31.3505
0.482595 3.6753 31.3322
0.426656 3.6735 31.3137
0.370774 3.67169 31.2951
-0.585658 3.71405 31.4697
-0.805542 3.71047 31.5198
-2.89885 3.98331 33.6678
-2.95664 3.98113 33.6411
-3.01433 3.97895 33.6143
-3.1294 3.97458 33.5603
2.6623 3.76638 32.7775
2.59511 3.7626 32.6958
2.5203 3.75677 32.5469
1.79703 3.66222 31.8546
1.73974 3.66049 31.8389
1.67632 3.6569 31.7578
1.61318 3.65332 31.6766
1.55624 3.65159 31.6605
1.49934 3.64985 31.6443
1.44249 3.6481 31.628
0.763981 3.62699 31.4227
0.70777 3.62521 31.4048
0.595511 3.62166 31.3686
0.539464 3.61987 31.3504
0.483473 3.61809 31.332
0.427539 3.6163 31.3135
-0.466948 3.64443 31.4817
-0.58469 3.6563 31.4692
-2.67458 3.93751 34.0071
-2.73002 3.93277 33.9022
-2.78836 3.93061 33.8758
2.73051 3.71095 32.86
2.66305 3.70728 32.7784
1.67712 3.59928 31.7582
1.61397 3.59582 31.6769
1.50014 3.59237 31.6446
1.44329 3.59064 31.6282
1.38649 3.58891 31.6118
0.764836 3.56969 31.4226
0.708629 3.56793 31.4047
0.596379 3.56441 31.3685
-2.72882 3.87029 33.9012
-2.89641 3.85906 33.6655
-2.95418 3.85694 33.6388
-3.01185 3.85482 33.6119
-3.12687 3.85057 33.5578
2.73126 3.65172 32.861
2.66381 3.64818 32.7793
2.03796 3.57223 32.0773
1.97752 3.55348 31.9676
1.91332 3.55012 31.8866
1.85595 3.54842 31.8711
1.74133 3.545 31.8397
1.67792 3.54165 31.7585
1.61477 3.53831 31.6772
1.55784 3.5366 31.6611
1.50095 3.53489 31.6449
1.4441 3.53317 31.6285
1.3873 3.53145 31.612
0.878254 3.51588 31.4581
0.76569 3.5124 31.4226
0.709488 3.51065 31.4047
0.597247 3.50716 31.3684
0.541209 3.50541 31.3501
0.485228 3.50366 31.3317
0.429304 3.5019 31.3132
0.373437 3.50014 31.2946
0.317629 3.49839 31.2758
0.250803 3.52714 31.313
-2.84418 3.80363 33.8471
-2.89519 3.79695 33.6644
-2.95295 3.79486 33.6376
-3.0106 3.79276 33.6107
-3.12561 3.78857 33.5565
2.59737 3.58565 32.6985
2.52255 3.58051 32.5493
1.74212 3.48725 31.8401
1.67871 3.48403 31.7589
1.61557 3.48081 31.6776
1.55864 3.47911 31.6614
1.50175 3.47741 31.6452
1.44491 3.4757 31.6288
1.38811 3.474 31.6123
1.27466 3.47058 31.5789
1.218 3.46887 31.562
0.935456 3.46028 31.4758
0.879099 3.45856 31.4582
0.710346 3.45338 31.4046
0.598114 3.44991 31.3684
0.542081 3.44818 31.35
-0.526118 3.48488 31.4885
-0.581791 3.48309 31.4677
-2.89397 3.73484 33.6633
2.73277 3.53327 32.8629
2.66532 3.52996 32.7812
1.61636 3.4233 31.678
1.55944 3.42162 31.6618
1.50255 3.41993 31.6455
1.44571 3.41824 31.6291
1.38892 3.41655 31.6125
1.27547 3.41316 31.5791
1.21361 3.41008 31.4972
0.875413 3.39987 31.3933
0.711203 3.3961 31.4046
0.196789 3.41091 31.2935
-0.580826 3.42536 31.4672
-2.89275 3.67273 33.6622
-2.95049 3.6707 33.6353
-3.00813 3.66867 33.6084
-3.119 3.66261 33.4767
2.73352 3.47404 32.8639
2.66607 3.47085 32.7822
2.59888 3.46767 32.7003
2.09406 3.41489 32.1232
2.04029 3.39801 32.0791
1.96901 3.39361 31.9321
1.91155 3.39194 31.9166
1.85831 3.37511 31.8725
1.67413 3.36747 31.6944
1.61716 3.3658 31.6783
1.56023 3.36413 31.6621
1.50335 3.36245 31.6458
1.44652 3.36077 31.6294
1.38973 3.3591 31.6128
1.27629 3.35573 31.5793
1.21964 3.35405 31.5624
1.04999 3.34899 31.5109
0.876255 3.34266 31.3933
0.71206 3.33883 31.4046
0.543823 3.33373 31.3499
0.431947 3.33032 31.3128
0.376095 3.32862 31.2941
0.314794 3.34201 31.3033
0.253451 3.3554 31.3124
0.197677 3.35369 31.2933
-0.524201 3.36939 31.4876
-2.89153 3.61063 33.6611
-2.94926 3.60864 33.6342
-3.00689 3.60664 33.6072
-3.11365 3.59891 33.3982
2.66682 3.41174 32.7831
2.59155 3.40728 32.6337
1.67492 3.30996 31.6948
1.61795 3.3083 31.6787
1.56103 3.30664 31.6625
1.50416 3.30497 31.6461
1.44732 3.30331 31.6297
1.39054 3.30164 31.6131
1.2771 3.29831 31.5795
1.22046 3.29664 31.5626
1.04594 3.29047 31.4461
0.877097 3.28545 31.3934
0.712916 3.28156 31.4046
0.600712 3.27819 31.3682
0.544693 3.27651 31.3498
-0.523243 3.31164 31.4872
-0.578897 3.30991 31.4663
-2.89031 3.54854 33.66
-2.94803 3.54658 33.6331
-3.00565 3.54461 33.6061
2.73502 3.35557 32.8659
2.66757 3.35263 32.7841
1.39134 3.2442 31.6134
1.22128 3.23923 31.5628
1.0419 3.23217 31.3812
0.19945 3.23924 31.293
0.143746 3.23756 31.2737
-0.577934 3.25219 31.4659
-2.68778 3.5346 34.1486
-2.8891 3.48646 33.6589
-2.94681 3.48452 33.632
-3.00441 3.48259 33.605
-3.11932 3.47871 33.5505
2.73578 3.29634 32.8669
2.66005 3.29233 32.7172
2.60113 3.29069 32.7031
2.04262 3.22378 32.0809
1.97133 3.22008 31.9338
1.91802 3.20344 31.8897
1.86067 3.20181 31.874
1.6765 3.19493 31.6956
1.61954 3.19329 31.6795
1.56263 3.19166 31.6632
1.50576 3.19002 31.6468
1.44893 3.18838 31.6303
1.39215 3.18675 31.6137
1.21688 3.18088 31.4981
1.0476 3.17596 31.4464
0.878778 3.17103 31.3936
0.714626 3.16702 31.4047
0.546431 3.16207 31.3497
0.429157 3.1737 31.3406
0.37327 3.17205 31.3218
0.317441 3.1704 31.3029
0.261672 3.16874 31.2839
0.200335 3.18202 31.2928
0.144637 3.18036 31.2736
-0.576971 3.19448 31.4654
-0.688042 3.1911 31.4233
-2.68662 3.47174 34.1478
-2.94558 3.42248 33.631
-3.00318 3.42057 33.6039
-3.11398 3.41529 33.472
2.6608 3.23333 32.7181
2.59379 3.23063 32.6365
1.86145 3.14404 31.8745
1.67729 3.13741 31.6961
1.62033 3.13579 31.6799
1.56342 3.13417 31.6636
1.50656 3.13255 31.6472
1.44973 3.13092 31.6307
1.39296 3.1293 31.614
1.21769 3.12358 31.4983
1.04355 3.11787 31.3816
0.879617 3.11383 31.3937
0.711282 3.10894 31.3397
0.547299 3.10485 31.3497
0.0898948 3.12153 31.254
-0.576009 3.13677 31.465
-2.68545 3.40888 34.1469
-2.79609 3.40216 33.9351
-2.83569 3.36693 33.8398
-2.89021 3.36368 33.7349
-2.94435 3.36044 33.6299
-3.00194 3.35856 33.6028
-3.05942 3.35669 33.5755
-3.1168 3.35481 33.5482
2.73727 3.17786 32.869
1.56422 3.07668 31.664
1.50735 3.07507 31.6476
1.45054 3.07346 31.631
1.39376 3.07185 31.6143
1.21851 3.06628 31.4986
1.04437 3.06073 31.3817
0.146416 3.06597 31.2732
0.0907896 3.06435 31.2538
-0.575048 3.07906 31.4646
-0.686093 3.07577 31.4224
-2.94313 3.2984 33.6288
-3.00071 3.29656 33.6017
-3.11555 3.29287 33.547
2.66229 3.11531 32.7202
2.60338 3.1137 32.706
2.04086 3.06444 32.1119
1.97365 3.04654 31.9356
1.91621 3.04494 31.92
1.85649 3.02783 31.8103
1.67887 3.02238 31.697
1.62192 3.02079 31.6808
1.56501 3.01919 31.6644
1.50815 3.0176 31.648
1.45134 3.016 31.6314
1.39457 3.0144 31.6147
1.21932 3.00899 31.4988
1.05008 3.0042 31.4469
0.876752 2.99881 31.3289
0.712985 2.99463 31.3398
0.549032 2.99043 31.3496
0.431769 3.002 31.3404
0.370401 3.01518 31.3497
0.314537 3.01357 31.3307
0.258732 3.01197 31.3116
0.147305 3.00877 31.2731
0.0916836 3.00717 31.2536
-2.79373 3.27712 33.9333
2.66304 3.0563 32.7212
2.58794 3.05325 32.5718
1.79368 2.96803 31.7296
1.73665 2.96645 31.7136
1.67966 2.96487 31.6975
1.62271 2.96329 31.6812
1.56581 2.9617 31.6649
1.50895 2.96012 31.6484
1.45214 2.95854 31.6318
1.39537 2.95696 31.615
1.22014 2.95169 31.4991
1.15857 2.9496 31.4169
1.04602 2.94645 31.3821
0.989825 2.94487 31.3645
0.877588 2.94172 31.3291
0.709632 2.93699 31.2749
0.148193 2.95158 31.2729
0.092577 2.95 31.2534
0.0370235 2.94842 31.2338
-2.79255 3.2146 33.9324
-2.8508 3.2128 33.9055
-2.90164 3.20893 33.7213
-2.94069 3.17435 33.6267
-2.99824 3.17257 33.5995
-3.05569 3.1708 33.5722
-3.10897 3.16807 33.4674
2.73952 3.00013 32.8723
1.45294 2.90108 31.6322
1.39617 2.89951 31.6154
1.21573 2.89399 31.4344
0.260487 2.89752 31.3115
0.14908 2.89439 31.2728
0.0934697 2.89283 31.2533
-0.624747 2.9052 31.5764
-0.683176 2.9028 31.421
-2.68079 3.15749 34.1435
-2.79137 3.15209 33.9315
-2.99701 3.11059 33.5985
-3.05445 3.10884 33.5711
2.74026 2.94088 32.8734
2.66453 2.93827 32.7233
2.03343 2.87456 31.953
1.97596 2.87299 31.9375
1.92269 2.85676 31.8932
1.85883 2.85485 31.812
1.79524 2.85295 31.7307
1.73821 2.8514 31.7146
1.68123 2.84984 31.6985
1.62429 2.84828 31.6822
1.56739 2.84673 31.6658
1.39141 2.84175 31.5508
1.21654 2.8368 31.4347
1.1602 2.83526 31.4174
1.04767 2.83217 31.3825
0.991478 2.83062 31.3649
0.879257 2.82753 31.3293
0.823226 2.82599 31.3114
0.711327 2.82291 31.2751
0.547761 2.81855 31.2847
0.428911 2.84493 31.3686
0.373002 2.84339 31.3496
0.261363 2.8403 31.3114
0.205635 2.83875 31.2921
0.149967 2.83721 31.2727
0.0943616 2.83567 31.2532
-0.623779 2.8473 31.5761
-2.7902 3.08959 33.9306
2.59016 2.8769 32.5748
1.73899 2.79387 31.7152
1.68201 2.79233 31.699
1.62508 2.79078 31.6827
1.56818 2.78924 31.6662
1.39221 2.78442 31.5511
1.21735 2.77962 31.435
1.16101 2.77809 31.4177
1.04849 2.77503 31.3828
0.992303 2.7735 31.3651
0.880091 2.77044 31.3295
0.824064 2.76892 31.3115
0.206515 2.78155 31.292
0.150853 2.78003 31.2726
0.0952528 2.7785 31.253
-0.0130442 2.77563 31.2792
-2.90171 3.02305 33.797
-2.95581 3.02072 33.6913
2.74175 2.82238 32.8756
2.66601 2.82024 32.7254
0.374733 2.72887 31.3496
0.263114 2.72585 31.3113
0.207395 2.72435 31.292
0.151738 2.72284 31.2725
0.0961432 2.72134 31.2529
-0.0121415 2.71839 31.2791
-0.677529 2.73 31.554
-0.913136 2.75349 31.5255
-2.67731 2.96901 34.1411
-2.73599 2.96732 34.1142
-2.78785 2.9646 33.9289
-2.84605 2.96293 33.9019
2.7425 2.76312 32.8768
2.66675 2.76122 32.7265
2.03165 2.71548 31.9838
1.97413 2.71395 31.9682
1.92084 2.69792 31.9238
1.85696 2.69632 31.842
1.79757 2.68033 31.7324
1.74056 2.67881 31.7163
1.68358 2.6773 31.7
1.62665 2.67578 31.6837
1.56976 2.67427 31.6672
1.39381 2.66974 31.5519
1.21896 2.66525 31.4356
1.16263 2.66375 31.4183
1.05013 2.66075 31.3833
0.993951 2.65926 31.3656
0.881755 2.65627 31.3299
0.825737 2.65478 31.3118
0.708687 2.6662 31.3032
0.541145 2.66173 31.2477
0.375597 2.67162 31.3496
0.263988 2.66864 31.3113
0.208274 2.66715 31.2919
0.152623 2.66567 31.2724
0.0970329 2.66418 31.2528
-0.00852218 2.66111 31.3446
-0.912152 2.69561 31.525
-2.78668 2.90212 33.9281
-2.84487 2.90048 33.901
-2.89933 2.89847 33.7952
-2.95341 2.89647 33.6894
2.6675 2.70219 32.7276
1.74134 2.62129 31.7168
1.68436 2.61978 31.7006
1.62744 2.61828 31.6842
1.57055 2.61678 31.6677
1.39461 2.61241 31.5523
1.33257 2.61104 31.4703
1.21977 2.60807 31.4359
1.16345 2.60658 31.4186
1.05095 2.60362 31.3835
0.994774 2.60214 31.3658
0.882587 2.59918 31.3301
0.153506 2.60849 31.2723
0.0979217 2.60703 31.2527
-0.0103386 2.60394 31.2788
-0.911169 2.63773 31.5246
-2.89814 2.83619 33.7943
-2.95221 2.83435 33.6885
2.74398 2.64461 32.8791
2.66824 2.64317 32.7287
0.377323 2.55711 31.3497
0.265734 2.55421 31.3112
0.21003 2.55276 31.2918
0.154389 2.55132 31.2723
0.0988097 2.54987 31.2526
-0.0094384 2.54672 31.2787
-1.19956 2.60114 31.7437
-2.69235 2.81287 34.2081
-2.78433 2.77717 33.9264
-2.84251 2.77559 33.8993
-2.90058 2.77401 33.872
2.74472 2.58534 32.8803
2.66898 2.58414 32.7299
2.03801 2.52738 31.9573
1.98056 2.52589 31.9416
1.92315 2.5244 31.9258
1.86349 2.50888 31.8157
1.7999 2.50771 31.7342
1.74289 2.50623 31.718
1.68593 2.50475 31.7017
1.62901 2.50328 31.6853
1.57213 2.50181 31.6687
1.39063 2.49808 31.4881
1.33417 2.49662 31.4711
1.22138 2.49371 31.4367
1.16507 2.49225 31.4193
1.1088 2.4908 31.4017
1.05258 2.48935 31.3841
0.996417 2.4879 31.3664
0.940305 2.48646 31.3485
0.884246 2.48502 31.3305
0.828241 2.48357 31.3124
0.716395 2.4807 31.2758
0.65531 2.4935 31.2852
0.538353 2.50487 31.2758
0.378185 2.49986 31.3498
0.266605 2.497 31.3112
0.210907 2.49557 31.2918
0.155271 2.49414 31.2722
0.0996968 2.49272 31.2526
-0.909204 2.52198 31.5238
-1.19855 2.54282 31.7432
-2.78316 2.7147 33.9256
-2.84133 2.71315 33.8985
-2.89576 2.71164 33.7926
-2.94982 2.71014 33.6867
-3.00741 2.70861 33.6592
2.72864 2.52663 32.7452
2.66971 2.52511 32.731
2.5946 2.52415 32.5811
1.85773 2.45163 31.7509
1.80068 2.45016 31.7348
1.74367 2.4487 31.7186
1.68671 2.44724 31.7023
1.62979 2.44578 31.6858
1.567 2.44476 31.6041
1.39143 2.44085 31.4886
1.33496 2.43941 31.4715
1.22219 2.43653 31.437
1.16587 2.43509 31.4196
1.10961 2.43365 31.4021
1.0534 2.43222 31.3844
0.997238 2.43079 31.3666
0.94113 2.42936 31.3487
0.885075 2.42793 31.3307
0.267476 2.43979 31.3112
0.211783 2.43838 31.2918
0.156152 2.43697 31.2722
0.100583 2.43557 31.2525
-0.0103638 2.43277 31.2128
-0.116065 2.42898 31.3039
-0.908224 2.46411 31.5234
-1.19754 2.4845 31.7428
-2.89458 2.64937 33.7917
-2.94863 2.64804 33.6858
-3.00621 2.64654 33.6583
-3.06368 2.64505 33.6306
-3.11688 2.64374 33.525
2.73779 2.4672 32.8146
1.68749 2.38972 31.7029
1.63057 2.38828 31.6864
1.5737 2.38683 31.6698
1.39222 2.38362 31.489
1.33576 2.38219 31.4719
1.27935 2.38077 31.4547
1.22299 2.37935 31.4374
0.379906 2.38537 31.3499
0.268346 2.38258 31.3113
0.212658 2.38119 31.2918
0.157032 2.37981 31.2722
0.101469 2.37842 31.2525
-0.00946762 2.37566 31.2127
-1.19653 2.42618 31.7423
-2.78083 2.58978 33.9241
-2.83898 2.5883 33.8968
-2.89339 2.58712 33.7909
2.73011 2.40854 32.7476
2.65473 2.40805 32.5977
1.33656 2.32498 31.4724
1.22379 2.32217 31.4378
1.16749 2.32076 31.4203
1.11123 2.31936 31.4028
1.05503 2.31796 31.3851
0.998876 2.31656 31.3672
0.942776 2.31516 31.3493
0.88673 2.31377 31.3312
0.830737 2.31238 31.313
0.774799 2.311 31.2947
0.713705 2.32369 31.3042
0.652567 2.33638 31.3136
0.540882 2.33362 31.2762
0.380765 2.32813 31.35
0.269215 2.32538 31.3113
0.213532 2.32401 31.2918
0.157911 2.32264 31.2722
-0.181836 2.34145 31.34
-0.906265 2.34838 31.5227
-2.68781 2.56116 34.2054
-2.88859 2.52529 33.7115
-2.94625 2.52386 33.684
-3.0038 2.52243 33.6565
-3.06126 2.521 33.6288
-3.11444 2.52002 33.5231
2.73926 2.34888 32.817
2.65547 2.34924 32.5989
1.05584 2.26083 31.3854
0.999694 2.25945 31.3675
0.943598 2.25807 31.3496
0.887556 2.25669 31.3315
0.831567 2.25532 31.3133
0.775634 2.25395 31.295
0.719756 2.25258 31.2765
0.270083 2.26818 31.3114
0.214405 2.26683 31.2918
0.15879 2.26548 31.2722
0.103237 2.26414 31.2524
-0.00767807 2.26146 31.2125
-0.119356 2.27128 31.3319
-0.180934 2.28409 31.3399
-0.236426 2.28275 31.3194
-0.794337 2.29318 31.5663
-0.905287 2.29053 31.5223
-1.19452 2.30956 31.7415
-2.68668 2.49824 34.2048
-2.74541 2.4968 34.1777
-2.94506 2.46178 33.6832
-3.0026 2.46038 33.6556
-3.06005 2.45899 33.6279
-3.11322 2.45818 33.5221
2.73158 2.29045 32.75
0.720594 2.19556 31.2767
0.486819 2.21812 31.2575
0.38248 2.21365 31.3502
0.27095 2.21098 31.3114
0.215278 2.20965 31.2919
0.159667 2.20832 31.2722
0.104119 2.207 31.2524
-0.23552 2.2254 31.3193
-0.793374 2.23527 31.566
-0.84888 2.23397 31.5441
-2.68555 2.43533 34.2042
-2.74427 2.43392 34.177
-2.79595 2.43379 33.9902
-2.83545 2.40105 33.8945
-2.88985 2.40037 33.7885
-2.94387 2.3997 33.6824
-3.00141 2.39834 33.6547
-3.05884 2.39698 33.627
2.74073 2.23056 32.8195
0.38892 2.14246 31.322
0.277502 2.13983 31.2832
0.216149 2.15247 31.2919
0.160543 2.15116 31.2722
0.105001 2.14986 31.2524
-0.179134 2.16936 31.3397
-0.234615 2.16806 31.3192
-0.290028 2.16677 31.2985
-0.847911 2.1761 31.5438
-2.88505 2.33897 33.7091
-2.94268 2.33763 33.6815
-3.00021 2.3363 33.6539
-3.05763 2.33498 33.6261
-3.11079 2.3345 33.5203
2.73305 2.17234 32.7525
2.65766 2.17279 32.6024
0.161419 2.094 31.2723
0.105882 2.09272 31.2524
-0.00500091 2.09017 31.2124
-0.178235 2.11199 31.3397
-0.23371 2.11072 31.3191
-0.289118 2.10946 31.2984
-0.79145 2.11948 31.5655
-1.42895 2.15396 31.9847
-2.74199 2.30818 34.1757
-3.05643 2.27298 33.6253
-3.11373 2.27169 33.5973
2.7422 2.11222 32.822
-0.288208 2.05214 31.2983
-0.343542 2.0509 31.2774
-1.42793 2.09519 31.9843
-2.68217 2.24662 34.2023
-2.74085 2.24532 34.1751
-2.79252 2.24609 33.9881
-2.85073 2.2448 33.9607
-2.88631 2.21368 33.7861
-2.94031 2.21351 33.6799
-2.99782 2.21225 33.6522
-3.05522 2.21099 33.6244
-3.11252 2.20974 33.5964
-3.16113 2.21071 33.4126
2.74293 2.05304 32.8233
2.65912 2.05514 32.6048
-0.84501 2.00249 31.5429
-2.73972 2.18246 34.1745
-2.99663 2.15023 33.6514
-3.05402 2.14901 33.6236
-3.1113 2.14779 33.5956
2.73524 1.99516 32.7563
2.65985 1.99631 32.6061
-2.73859 2.1196 34.1739
2.73597 1.9361 32.7576
-2.78911 2.05844 33.9862
-2.84728 2.05725 33.9587
-2.90162 2.05751 33.8519
-2.99424 2.02621 33.6499
-3.05162 2.02505 33.6219
-3.10888 2.0239 33.5939
-3.15748 2.02578 33.4099
2.73669 1.87703 32.7589
-1.25642 1.87024 31.7742
-2.67768 1.99508 34.2001
-2.73632 1.99391 34.1727
-2.79142 1.99432 34.0654
-3.05042 1.96309 33.6211
-3.10767 1.96197 33.593
-3.15626 1.96415 33.4091
2.73742 1.81796 32.7603
2.66202 1.81982 32.6098
2.59532 1.82005 32.5276
2.52889 1.8203 32.4452
2.47054 1.81893 32.4302
-1.25543 1.81188 31.7739
-2.67656 1.93221 34.1996
-2.7352 1.93107 34.1722
-2.78684 1.93337 33.985
-2.84499 1.93225 33.9575
-2.90304 1.93113 33.9297
2.47107 1.7347 32.3061
2.40531 1.73513 32.2242
2.34738 1.73379 32.209
2.21709 1.73468 32.0452
2.1595 1.73336 32.0296
-2.7857 1.87084 33.9845
-2.84385 1.86975 33.9568
-2.89817 1.87052 33.8499
-2.99068 1.84022 33.6476
-3.04802 1.83917 33.6196
