0.798291 6.89462 31.6605
0.741421 6.89211 31.6441
0.627826 6.88705 31.6109
0.571103 6.88449 31.5941
0.45781 6.87934 31.5601
0.401241 6.87674 31.543
0.344725 6.87413 31.5257
0.288263 6.87151 31.5083
0.1755 6.86621 31.4732
0.0124765 6.87403 31.5505
-0.100186 6.86858 31.5142
-0.722485 6.90706 31.6277
-0.778607 6.90414 31.608
-0.834663 6.90121 31.5882
-0.944759 6.91159 31.682
-1.40557 6.95829 31.8464
2.61066 7.16982 33.2672
2.55062 7.16781 33.2547
2.48146 7.11055 33.0448
2.22059 7.03103 32.6623
2.16163 7.02891 32.6489
2.08849 7.01037 32.5012
1.26655 6.87198 31.9179
1.19855 6.85389 31.7718
1.14136 6.8515 31.7562
1.08421 6.84909 31.7404
1.02711 6.84666 31.7246
0.970059 6.84422 31.7086
0.91305 6.84177 31.6925
0.856088 6.8393 31.6763
0.799174 6.83681 31.66
0.742307 6.83432 31.6435
0.628722 6.82927 31.6103
0.572003 6.82673 31.5935
0.45872 6.8216 31.5595
0.402156 6.81902 31.5423
0.345645 6.81642 31.525
0.289187 6.8138 31.5076
0.176435 6.80853 31.4724
0.0134341 6.81617 31.5496
-0.0992169 6.81075 31.5133
-0.155455 6.80801 31.4949
-0.211633 6.80526 31.4764
-0.375638 6.81265 31.5518
-0.499978 6.8443 31.5711
-0.721455 6.84884 31.6266
-0.83362 6.84302 31.587
-1.40446 6.89948 31.8451
-2.3283 6.97036 32.244
2.68829 7.12881 33.4187
2.62798 7.12682 33.4064
2.34761 7.03024 32.8829
2.08928 6.95155 32.5013
1.14222 6.79364 31.7558
1.08508 6.79124 31.74
1.02798 6.78882 31.7242
0.970929 6.78639 31.7082
0.913924 6.78395 31.6921
0.856967 6.78149 31.6758
0.800057 6.77902 31.6595
0.743195 6.77653 31.643
0.629618 6.77151 31.6097
0.572904 6.76898 31.5929
0.45963 6.76387 31.5588
0.403071 6.7613 31.5416
0.346565 6.75871 31.5243
0.290112 6.7561 31.5069
0.17737 6.75086 31.4717
0.0143921 6.75831 31.5488
-0.0982479 6.75292 31.5124
-0.15448 6.7502 31.494
-0.210653 6.74747 31.4755
-0.720424 6.79063 31.6255
-0.832577 6.78484 31.5859
-1.17913 6.83664 31.7914
-1.40334 6.84068 31.8437
2.62876 7.06663 33.4068
2.40778 6.97291 32.8962
2.3484 6.97085 32.8832
2.22218 6.91292 32.6626
2.16322 6.9108 32.6492
2.09008 6.89272 32.5014
0.971799 6.72857 31.7077
0.914799 6.72613 31.6916
0.857846 6.72368 31.6754
0.80094 6.72122 31.659
0.744082 6.71874 31.6425
0.630515 6.71374 31.6091
0.573806 6.71122 31.5923
0.460541 6.70614 31.5582
0.403987 6.70358 31.541
0.347486 6.701 31.5237
0.291038 6.69841 31.5062
0.178306 6.69319 31.4709
0.122023 6.69055 31.4531
0.0153505 6.70047 31.548
-0.719393 6.73242 31.6244
-0.831533 6.72666 31.5848
-1.40222 6.78189 31.8424
2.55294 6.98793 33.256
2.48382 6.93167 33.0458
2.40856 6.91351 32.8965
2.16402 6.85175 32.6493
2.08382 6.82607 32.4348
1.26468 6.71611 31.9455
1.20111 6.68031 31.7707
1.14393 6.67794 31.7551
1.0868 6.67555 31.7393
1.02971 6.67316 31.7233
0.97267 6.67075 31.7073
0.915674 6.66832 31.6912
0.858725 6.66588 31.6749
0.801823 6.66343 31.6585
0.74497 6.66096 31.642
0.631411 6.65599 31.6086
0.574707 6.65348 31.5917
0.461452 6.64842 31.5576
0.404903 6.64587 31.5403
0.348407 6.6433 31.523
0.291964 6.64072 31.5055
0.179242 6.63552 31.4702
0.122964 6.6329 31.4524
0.0163092 6.64262 31.5472
-0.0963086 6.63728 31.5107
-0.152529 6.63459 31.4922
-0.208691 6.63188 31.4737
-0.384548 6.67571 31.6064
-0.496983 6.67016 31.5681
-0.609163 6.66455 31.5294
-0.718362 6.67422 31.6233
-0.774458 6.67136 31.6035
-1.17697 6.71937 31.7889
-1.4011 6.7231 31.8411
-2.33874 6.82159 32.2304
-2.39261 6.81001 32.1362
2.69063 6.94822 33.4201
2.34996 6.85206 32.8837
2.09167 6.77507 32.5017
1.14479 6.62009 31.7547
1.08766 6.61772 31.7389
1.03058 6.61533 31.7229
0.973541 6.61293 31.7069
0.916549 6.61051 31.6907
0.802707 6.60564 31.658
0.745858 6.60319 31.6414
0.632309 6.59823 31.608
0.575609 6.59573 31.5911
0.462364 6.5907 31.5569
0.405819 6.58816 31.5397
0.349328 6.5856 31.5223
0.29289 6.58304 31.5048
0.180178 6.57786 31.4694
0.123906 6.57526 31.4516
0.0172682 6.58478 31.5463
-0.0953385 6.57947 31.5098
-0.71733 6.61602 31.6223
-0.77342 6.61318 31.6024
-0.829443 6.61033 31.5825
-1.17589 6.66075 31.7877
2.61453 6.87 33.2694
2.41012 6.79472 32.8971
2.35075 6.79267 32.884
2.27996 6.75643 32.7058
2.22456 6.73575 32.6632
2.16562 6.73365 32.6497
2.09246 6.71624 32.5018
0.917424 6.55271 31.6903
0.803591 6.54786 31.6575
0.746747 6.54541 31.6409
0.633206 6.54048 31.6074
0.576511 6.53799 31.5905
0.463275 6.53298 31.5563
0.406736 6.53045 31.539
0.350249 6.52791 31.5216
0.293816 6.52536 31.5041
0.181115 6.52021 31.4687
-0.494983 6.55409 31.5662
-0.607139 6.54855 31.5274
-0.716298 6.55783 31.6212
-0.772381 6.55501 31.6014
-0.828398 6.55217 31.5814
-1.39887 6.60556 31.8384
-2.33418 6.6941 32.1564
-2.39012 6.69083 32.1329
2.61531 6.81004 33.2699
2.48617 6.75279 33.0469
2.09326 6.65742 32.5019
1.25646 6.52722 31.8136
1.1992 6.52489 31.798
1.14651 6.50441 31.754
1.08939 6.50205 31.7381
1.03231 6.49969 31.7222
0.975284 6.4973 31.7061
0.9183 6.49491 31.6898
0.804475 6.49008 31.657
0.747635 6.48764 31.6404
0.634104 6.48273 31.6069
0.577413 6.48026 31.59
0.464187 6.47527 31.5557
0.407652 6.47275 31.5384
0.351171 6.47022 31.521
0.294743 6.46768 31.5034
0.182052 6.46256 31.468
0.12579 6.45998 31.4501
-0.0933974 6.46386 31.5081
-0.149601 6.46121 31.4896
-0.205745 6.45855 31.471
-0.493983 6.49607 31.5652
-0.606126 6.49056 31.5264
-0.715265 6.49964 31.6201
-1.17372 6.54353 31.7853
-1.28584 6.53766 31.7434
-1.39775 6.54679 31.8371
-2.33501 6.64241 32.2254
-2.38887 6.63126 32.1312
2.41169 6.67593 32.8978
2.35232 6.67389 32.8847
2.15273 6.60071 32.5158
2.09405 6.5986 32.5021
1.03318 6.44187 31.7218
0.976155 6.4395 31.7057
0.919176 6.43711 31.6894
0.80536 6.4323 31.6566
0.748524 6.42988 31.6399
0.635002 6.42499 31.6064
0.578316 6.42253 31.5894
0.465099 6.41756 31.5551
0.408569 6.41506 31.5378
0.352093 6.41254 31.5203
0.29567 6.41001 31.5027
0.239302 6.40747 31.4851
0.18299 6.40491 31.4672
0.126733 6.40235 31.4493
-0.605113 6.43257 31.5254
-0.770303 6.43868 31.5992
-2.38542 6.56395 32.0593
2.41247 6.61654 32.8981
2.3531 6.6145 32.885
2.28232 6.5791 32.7066
2.22695 6.55859 32.6638
2.15352 6.54189 32.516
2.09485 6.53978 32.5022
-0.491982 6.38004 31.5633
-0.6041 6.37459 31.5244
-0.769263 6.38052 31.5981
-1.28365 6.42054 31.7409
-1.39551 6.42928 31.8345
-2.33046 6.51533 32.1515
-2.38417 6.50451 32.0577
2.5576 6.62816 33.2587
2.48853 6.57393 33.048
2.41325 6.55714 32.8985
2.15431 6.48306 32.5162
1.259 6.35351 31.8128
1.20175 6.35121 31.7971
1.14454 6.3489 31.7813
1.09198 6.32858 31.7371
0.977899 6.32389 31.7049
0.920928 6.32153 31.6886
0.807129 6.31676 31.6556
0.750303 6.31436 31.639
0.580122 6.30707 31.5883
0.466924 6.30216 31.5539
0.410404 6.29968 31.5365
0.297525 6.29468 31.5014
0.241167 6.29217 31.4837
0.184865 6.28964 31.4658
0.128619 6.2871 31.4478
-0.0961882 6.30856 31.5341
-0.152425 6.30595 31.5155
-0.208601 6.30333 31.4969
-0.270571 6.31877 31.5066
-0.490981 6.32203 31.5624
-0.603086 6.31661 31.5234
-1.28255 6.36199 31.7397
-2.32922 6.45575 32.1499
-2.38512 6.45258 32.1263
2.41403 6.49775 32.8988
2.09644 6.42215 32.5026
0.921804 6.26374 31.6882
0.746857 6.24988 31.5735
0.581025 6.24935 31.5877
0.411322 6.24199 31.5359
0.298453 6.23702 31.5007
0.2421 6.23452 31.483
0.185803 6.23201 31.4651
-0.489979 6.26403 31.5614
-0.602073 6.25864 31.5224
-0.767183 6.26423 31.596
-1.00233 6.30356 31.7073
-2.32798 6.39619 32.1482
-2.38168 6.38566 32.0544
2.7064 6.57923 33.6252
2.55915 6.50825 33.2596
2.41482 6.43836 32.8992
2.34017 6.4221 32.7502
2.28107 6.42006 32.7368
2.1559 6.36542 32.5166
-0.268629 6.20309 31.5049
-0.380752 6.19785 31.4668
-0.488978 6.20603 31.5605
-0.545051 6.20336 31.541
-0.601059 6.20068 31.5214
-1.28036 6.24491 31.7372
-1.39923 6.27152 31.8604
-2.38043 6.32624 32.0528
2.55993 6.44829 33.2601
2.49089 6.39507 33.0492
2.4156 6.37897 32.8996
2.15669 6.3066 32.5168
1.3144 6.19991 31.8562
1.25706 6.19765 31.8405
1.19978 6.19538 31.8247
1.14253 6.1931 31.8089
1.08995 6.17297 31.7645
0.980516 6.15051 31.7037
0.923557 6.14818 31.6874
0.74863 6.1346 31.5725
0.578834 6.12743 31.5216
0.413157 6.12664 31.5347
0.300308 6.12172 31.4994
0.243966 6.11924 31.4816
0.187679 6.11676 31.4637
0.131449 6.11426 31.4457
0.0135893 6.12704 31.4375
-0.1553 6.15043 31.5417
-0.21151 6.14785 31.5229
-0.267658 6.14526 31.504
-0.379768 6.14005 31.4659
-0.487976 6.14804 31.5596
-0.544043 6.14538 31.5401
-1.27926 6.18637 31.736
2.41638 6.31958 32.9
2.34173 6.30377 32.7509
1.3726 6.14419 31.8715
1.31523 6.14196 31.856
0.745174 6.07057 31.507
0.579735 6.06983 31.5211
-0.378785 6.08225 31.465
-0.543034 6.08741 31.5391
-0.59903 6.08477 31.5195
-0.770459 6.10788 31.6219
-0.999166 6.12838 31.7041
-2.37794 6.20744 32.0496
2.41716 6.26019 32.9004
2.34251 6.24461 32.7512
2.28341 6.24259 32.7378
2.21697 6.19102 32.531
2.15828 6.18897 32.5172
2.09962 6.1869 32.5034
1.96871 6.16951 32.3416
1.91039 6.16741 32.3273
1.8521 6.16529 32.3129
1.7311 6.11222 32.0936
1.67326 6.11007 32.0788
1.61546 6.1079 32.0639
1.5577 6.10572 32.0488
1.37343 6.08624 31.8714
1.31606 6.08401 31.8558
1.25874 6.08177 31.8401
1.20146 6.07952 31.8243
-0.15338 6.03472 31.5402
-0.265715 6.02961 31.5024
-0.377802 6.02446 31.4642
-0.542026 6.02945 31.5382
-0.598015 6.02682 31.5185
-1.2211 6.07212 31.7547
-2.37669 6.14804 32.0479
2.47733 6.2028 32.914
2.41794 6.2008 32.9008
2.15907 6.13015 32.5175
2.10042 6.12809 32.5036
2.0418 6.12602 32.4895
1.96951 6.11093 32.3417
1.91119 6.10884 32.3274
1.55853 6.04752 32.0488
1.37426 6.02828 31.8712
1.3169 6.02606 31.8557
1.25958 6.02383 31.8399
1.2023 6.02159 31.8241
1.14507 6.01934 31.8082
1.09252 5.9994 31.7636
0.921395 5.99253 31.7147
0.751291 5.96171 31.5712
0.581536 5.95464 31.5201
0.415912 5.95364 31.5329
0.241369 5.96403 31.508
0.185048 5.96159 31.49
0.128784 5.95913 31.4719
0.0108313 5.97184 31.4636
-0.152419 5.97687 31.5394
-0.264743 5.97179 31.5016
-0.376818 5.96667 31.4633
-0.997055 6.01161 31.7019
2.41873 6.14141 32.9012
2.34406 6.12629 32.752
2.0426 6.06721 32.4897
1.9703 6.05236 32.3419
1.91199 6.05027 32.3276
1.84058 6.03546 32.1801
1.79061 5.9979 32.1084
1.73274 5.99578 32.0937
1.6749 5.99364 32.0788
1.61711 5.99148 32.0638
1.55935 5.98932 32.0487
1.37509 5.97033 31.8711
-0.263771 5.91398 31.5008
-0.375834 5.90889 31.4625
-0.540009 5.91354 31.5363
-0.595985 5.91094 31.5166
-0.773791 5.95127 31.6479
-0.995999 5.95324 31.7008
-2.37636 6.03595 32.1149
2.56381 6.1485 33.2627
2.34484 6.06713 32.7524
2.28576 6.06513 32.7388
2.21934 6.01456 32.5318
2.16066 6.01252 32.518
2.10201 6.01047 32.504
2.0434 6.00841 32.4899
1.73355 5.93756 32.0937
1.67572 5.93542 32.0788
1.61793 5.93328 32.0638
1.55421 5.92502 31.9829
1.37592 5.91238 31.871
1.31857 5.91018 31.8554
1.26125 5.90797 31.8396
1.14676 5.90352 31.8077
0.0127072 5.85651 31.4622
-0.150498 5.86119 31.5379
-0.262799 5.85617 31.5
-0.37485 5.85112 31.4616
-0.539 5.85559 31.5354
-0.994943 5.89488 31.6998
2.47967 6.02462 32.9153
2.42029 6.02264 32.902
2.16146 5.95371 32.5182
2.10281 5.95167 32.5043
1.9719 5.93521 32.3423
1.91359 5.93313 32.3279
1.55504 5.86693 31.9829
1.49159 5.85877 31.9018
1.37676 5.85443 31.8709
1.3194 5.85224 31.8552
1.26209 5.85004 31.8394
1.20483 5.84783 31.8235
1.14761 5.84561 31.8075
1.09043 5.84337 31.7914
0.914534 5.83065 31.6767
0.744677 5.80042 31.5329
0.580224 5.77604 31.4536
0.418666 5.78068 31.5312
0.244145 5.79103 31.5062
0.182368 5.80614 31.5165
0.126069 5.80372 31.4983
0.0136453 5.79885 31.4616
-0.149538 5.80336 31.5372
-0.261826 5.79837 31.4992
-0.317878 5.79586 31.4801
-0.373866 5.79335 31.4608
-0.993887 5.83652 31.6987
2.42107 5.96325 32.9025
2.3464 5.94882 32.7531
2.28732 5.94682 32.7396
1.97269 5.87664 32.3424
1.91439 5.87457 32.328
1.84954 5.86647 32.247
1.78901 5.84079 32.1372
1.73518 5.82112 32.0938
1.67736 5.81901 32.0788
1.61958 5.81688 32.0638
1.55586 5.80885 31.9829
1.49241 5.80081 31.9018
1.43498 5.79865 31.8863
1.37759 5.79648 31.8708
1.32024 5.7943 31.8551
1.26293 5.79211 31.8393
-0.148577 5.74553 31.5364
-0.260854 5.74057 31.4984
-0.372882 5.73558 31.46
-0.536982 5.73971 31.5336
-0.59294 5.73716 31.5138
-0.770724 5.77665 31.6451
-0.992831 5.77816 31.6977
-1.28552 5.81267 31.7868
-2.42833 5.85457 32.0862
2.34718 5.88966 32.7536
2.2881 5.88767 32.7399
2.22172 5.83811 32.5327
2.16304 5.83609 32.5188
2.1044 5.83406 32.5048
2.03183 5.82012 32.357
1.97349 5.81807 32.3426
1.6204 5.75868 32.0638
1.55668 5.75077 31.9828
1.49324 5.74285 31.9017
1.43581 5.7407 31.8863
1.37842 5.73854 31.8707
1.32107 5.73637 31.855
1.26377 5.73419 31.8392
1.1493 5.7298 31.8071
1.08713 5.72184 31.7255
0.127924 5.68836 31.4971
0.0716939 5.68596 31.4787
0.0155219 5.68355 31.4603
-0.147616 5.6877 31.5357
-0.259882 5.68278 31.4977
-0.315921 5.68031 31.4785
-0.371898 5.67782 31.4591
-0.991774 5.71981 31.6966
-1.28444 5.75408 31.7856
2.42264 5.84448 32.9034
2.34796 5.8305 32.754
2.03262 5.76154 32.3572
1.97429 5.7595 32.3429
1.91598 5.75745 32.3284
1.85772 5.75538 32.3138
1.55751 5.69269 31.9828
1.49406 5.68489 31.9017
1.43663 5.68275 31.8862
1.37925 5.6806 31.8706
1.32191 5.67844 31.8549
1.26461 5.67627 31.839
1.15014 5.6719 31.8069
1.08798 5.66406 31.7253
0.917112 5.6574 31.6759
0.747308 5.62775 31.5318
0.690763 5.62548 31.5147
0.577828 5.62091 31.4802
0.407206 5.63686 31.5212
0.241475 5.63543 31.5329
0.185135 5.63306 31.5148
0.128852 5.63068 31.4965
0.0726268 5.6283 31.4781
0.0164602 5.6259 31.4596
-0.258909 5.62499 31.4969
-0.768678 5.66027 31.6432
-0.990718 5.66147 31.6956
2.6277 5.85064 33.2786
2.42342 5.78509 32.9038
2.34874 5.77134 32.7544
2.03342 5.70297 32.3574
1.97508 5.70093 32.3431
1.91678 5.69888 32.3286
1.85194 5.69113 32.2475
1.79549 5.64856 32.1088
1.73763 5.64648 32.0939
1.62204 5.64229 32.0638
1.55833 5.63461 31.9828
1.49488 5.62693 31.9017
1.43746 5.6248 31.8862
1.38008 5.62266 31.8705
1.32274 5.62051 31.8548
1.26545 5.61835 31.8389
0.0173986 5.56826 31.459
-0.257937 5.56721 31.4961
-0.313965 5.56477 31.4769
-0.369929 5.56231 31.4575
-0.540166 5.58341 31.5598
-0.767656 5.60208 31.6423
-1.28229 5.63691 31.7834
2.77631 5.8547 33.6459
2.40862 5.71415 32.7684
2.34952 5.71219 32.7548
2.29045 5.71021 32.7412
2.22038 5.6792 32.5629
2.16542 5.65966 32.5197
2.03421 5.64439 32.3577
1.97588 5.64236 32.3433
1.62286 5.5841 32.0639
1.55915 5.57654 31.9828
1.49571 5.56897 31.9016
1.43829 5.56685 31.8861
1.38091 5.56472 31.8704
1.32357 5.56258 31.8547
1.26628 5.56043 31.8388
1.15184 5.5561 31.8066
1.08967 5.54851 31.7249
0.914164 5.5365 31.6099
0.24331 5.52003 31.5318
0.130707 5.51535 31.4953
0.0744928 5.51299 31.4769
0.018337 5.51062 31.4583
-0.0377595 5.50825 31.4397
-0.256964 5.50943 31.4954
-0.312986 5.507 31.4761
-0.368945 5.50457 31.4567
-0.766633 5.54391 31.6414
-0.988605 5.5448 31.6935
-1.28121 5.57834 31.7823
2.77708 5.79416 33.6466
2.55296 5.71714 33.1285
2.48435 5.66827 32.9182
2.41719 5.66065 32.8368
2.16622 5.60085 32.52
2.03501 5.58582 32.3579
1.97668 5.5838 32.3435
1.91838 5.58177 32.329
1.86012 5.57972 32.3144
1.55399 5.51312 31.9171
1.49653 5.51102 31.9016
1.43911 5.50891 31.8861
1.38174 5.50679 31.8704
1.32441 5.50466 31.8546
1.26712 5.50252 31.8387
1.09052 5.49073 31.7247
0.915021 5.47887 31.6096
0.858289 5.47667 31.5928
0.744974 5.47223 31.5589
0.688393 5.47 31.5418
0.575385 5.4655 31.5071
0.51896 5.46324 31.4896
0.406271 5.45869 31.4543
0.244227 5.46234 31.5313
0.131635 5.45768 31.4947
0.0754258 5.45534 31.4763
0.0192754 5.45299 31.4577
-0.0368156 5.45063 31.439
-0.255992 5.45166 31.4946
-0.76561 5.48573 31.6404
-1.28013 5.51978 31.7813
2.70019 5.71998 33.4939
2.63002 5.67075 33.2805
2.41797 5.60138 32.8373
2.35108 5.59387 32.7557
2.29201 5.59191 32.742
2.0358 5.52725 32.3582
1.97747 5.52523 32.3438
1.91918 5.52321 32.3292
1.85434 5.51581 32.248
1.79385 5.49116 32.1379
1.74008 5.47186 32.0942
1.55481 5.45515 31.9171
1.49736 5.45306 31.9016
1.43994 5.45096 31.886
1.38257 5.44885 31.8703
1.32524 5.44673 31.8545
1.26796 5.4446 31.8386
1.09638 5.43816 31.79
0.0763587 5.3977 31.4757
0.0202137 5.39536 31.4571
-0.0358718 5.39302 31.4384
-0.25502 5.39389 31.4939
-0.31103 5.39149 31.4746
-0.543402 5.42684 31.5863
-0.764587 5.42756 31.6395
-1.27905 5.46122 31.7802
-2.4374 5.53413 32.1385
-2.49308 5.5313 32.1143
2.6308 5.61079 33.2811
2.41095 5.53666 32.7698
2.35185 5.53471 32.7562
2.29279 5.53276 32.7424
2.219 5.51998 32.5933
2.1678 5.48324 32.5207
2.03659 5.46867 32.3585
1.97827 5.46667 32.344
1.55563 5.39719 31.9171
1.49818 5.39511 31.9016
1.44077 5.39302 31.886
1.3834 5.39092 31.8703
1.32608 5.38881 31.8544
1.2688 5.38669 31.8385
1.09221 5.37519 31.7244
1.03033 5.36795 31.6424
0.916734 5.36362 31.6091
0.86001 5.36144 31.5923
0.746713 5.35705 31.5583
0.69014 5.35484 31.5411
0.57715 5.3504 31.5064
0.520735 5.34816 31.4888
0.408064 5.34367 31.4534
0.246061 5.34696 31.5303
0.13349 5.34237 31.4936
0.0772916 5.34006 31.4751
0.021152 5.33774 31.4565
-0.034928 5.33541 31.4377
-0.310052 5.33374 31.4738
-0.763565 5.3694 31.6386
-1.27797 5.40266 31.7791
2.55527 5.53794 33.1303
2.48669 5.49009 32.9198
2.41953 5.48283 32.8383
2.35263 5.47556 32.7567
2.09574 5.41209 32.3731
2.03738 5.4101 32.3588
1.97906 5.4081 32.3443
1.92078 5.4061 32.3297
1.4416 5.33508 31.886
1.38423 5.33299 31.8702
1.32691 5.33089 31.8544
1.26963 5.32878 31.8384
1.08804 5.31244 31.6587
1.03117 5.3103 31.6422
0.91759 5.30599 31.6089
0.860871 5.30383 31.5921
0.747582 5.29946 31.558
0.691014 5.29727 31.5408
0.578033 5.29285 31.506
0.521622 5.29063 31.4884
0.408961 5.28616 31.4529
0.246978 5.28928 31.5297
0.134418 5.28472 31.4931
0.0782244 5.28242 31.4745
0.0220902 5.28012 31.4559
-0.0339843 5.2778 31.4371
-0.762542 5.31124 31.6377
-1.33278 5.34156 31.7564
-2.49059 5.41235 32.1112
2.63235 5.49085 33.2824
2.42031 5.42355 32.8388
2.35341 5.4164 32.7572
2.29435 5.41446 32.7434
2.03818 5.35153 32.3591
1.97986 5.34954 32.3446
1.85015 5.33546 32.1821
1.79217 5.33345 32.1672
1.73838 5.31433 32.1234
1.55727 5.28128 31.9172
1.49983 5.27921 31.9016
1.44242 5.27714 31.886
1.38506 5.27506 31.8702
1.32775 5.27297 31.8543
1.27047 5.27088 31.8383
1.08888 5.25479 31.6586
0.135345 5.22707 31.4925
0.0791572 5.22479 31.474
0.0230284 5.2225 31.4553
-0.0330407 5.2202 31.4365
-0.144997 5.21558 31.3986
-0.308096 5.21826 31.4723
-0.540429 5.25282 31.5839
-0.761519 5.25309 31.6369
-1.21984 5.28809 31.7985
-1.3317 5.28304 31.7553
-2.48934 5.35288 32.1097
2.55681 5.41848 33.1316
2.35419 5.35725 32.7576
2.28763 5.35023 32.6762
2.22133 5.34321 32.5945
2.17018 5.30682 32.5217
2.09732 5.29494 32.3737
2.03897 5.29296 32.3594
1.98065 5.29098 32.3448
1.55809 5.22332 31.9172
1.50065 5.22127 31.9017
1.44325 5.21921 31.886
1.38589 5.21714 31.8702
1.32858 5.21506 31.8543
1.27131 5.21297 31.8382
1.09475 5.2019 31.7239
1.03287 5.19502 31.6419
0.919302 5.19076 31.6085
0.862591 5.18861 31.5916
0.80593 5.18646 31.5746
0.74932 5.1843 31.5574
0.69276 5.18213 31.5402
0.636253 5.17995 31.5228
0.579798 5.17777 31.5053
0.523396 5.17557 31.4877
0.410755 5.17116 31.4521
0.248812 5.17393 31.5288
0.136272 5.16943 31.492
0.0800897 5.16716 31.4734
0.0239664 5.16489 31.4547
-0.0320971 5.16261 31.4359
-0.144042 5.15802 31.3979
-0.760497 5.19494 31.636
-1.1077 5.22458 31.7042
-1.21877 5.22953 31.7975
-2.48809 5.29343 32.1082
-2.54364 5.2907 32.0837
2.55758 5.35874 33.1322
2.48902 5.31191 32.9214
2.42186 5.30501 32.8399
2.35497 5.29809 32.7581
2.09811 5.23636 32.3741
2.03976 5.23439 32.3597
1.98145 5.23242 32.3451
1.85174 5.21881 32.1826
1.44408 5.16127 31.886
1.32941 5.15715 31.8542
1.26678 5.15041 31.7727
1.09057 5.13948 31.6583
1.03372 5.13738 31.6417
0.920158 5.13314 31.6083
0.863451 5.13101 31.5913
0.806795 5.12887 31.5743
0.750189 5.12672 31.5571
0.693634 5.12457 31.5399
0.637131 5.1224 31.5225
0.58068 5.12023 31.5049
0.524283 5.11805 31.4873
0.411651 5.11367 31.4517
0.249729 5.11626 31.5283
0.0810222 5.10954 31.4728
0.0249043 5.10728 31.4541
-0.0311538 5.10501 31.4353
-0.538448 5.13683 31.5823
-0.759475 5.1368 31.6351
-1.2177 5.17098 31.7965
-1.32952 5.16602 31.7531
-2.53981 5.22619 32.0117
2.63466 5.31095 33.2845
2.42264 5.24573 32.8404
2.35574 5.23893 32.7587
2.28918 5.23216 32.6771
2.04055 5.17582 32.36
1.85253 5.16049 32.1828
1.79456 5.1585 32.1678
1.73449 5.1349 32.0576
1.55973 5.10741 31.9173
1.50229 5.10538 31.9017
1.4449 5.10334 31.886
1.33025 5.09924 31.8542
1.26761 5.09262 31.7727
1.09141 5.08183 31.6582
1.03457 5.07974 31.6416
0.921014 5.07553 31.6081
0.864311 5.07341 31.5911
0.807659 5.07128 31.5741
0.751057 5.06915 31.5569
0.694507 5.06701 31.5396
0.412548 5.05617 31.4512
0.356319 5.05398 31.4332
0.250645 5.0586 31.5278
0.138126 5.05415 31.4909
0.0819545 5.05192 31.4723
0.025842 5.04967 31.4535
-0.0302105 5.04742 31.4347
-0.142133 5.0429 31.3966
-0.311182 5.06199 31.4989
-0.537457 5.07885 31.5816
-1.1056 5.10786 31.7023
2.35652 5.17978 32.7592
2.28996 5.17312 32.6776
2.22367 5.16645 32.5959
2.17256 5.13041 32.5229
2.09969 5.11921 32.3748
2.04135 5.11726 32.3603
1.56055 5.04946 31.9174
1.50312 5.04744 31.9018
1.44573 5.04541 31.8861
1.33108 5.04133 31.8542
1.26845 5.03483 31.7726
1.09226 5.02419 31.658
1.03541 5.0221 31.6414
0.978617 5.02001 31.6247
0.921869 5.01792 31.6079
0.865171 5.01581 31.5909
0.808523 5.0137 31.5738
0.751926 5.01158 31.5566
0.69538 5.00945 31.5393
0.638886 5.00731 31.5218
0.582444 5.00516 31.5043
0.526057 5.00301 31.4866
0.413444 4.99868 31.4508
0.357221 4.99651 31.4328
0.251561 5.00093 31.5273
0.139053 4.99652 31.4904
0.0828866 4.9943 31.4717
-0.0292675 4.98984 31.4341
-0.536467 5.02086 31.5808
-2.5373 5.10761 32.0087
2.55989 5.17954 33.1342
2.42419 5.12718 32.8415
2.3573 5.12062 32.7597
2.29825 5.11871 32.7458
2.10048 5.06063 32.3751
2.04214 5.05869 32.3607
1.91213 5.04581 32.1982
1.85412 5.04384 32.1833
1.79616 5.04187 32.1683
1.26928 4.97704 31.7726
1.0931 4.96654 31.6579
1.03626 4.96447 31.6413
0.979468 4.96239 31.6246
0.922725 4.96031 31.6077
0.866031 4.95822 31.5907
0.809387 4.95611 31.5736
0.752794 4.95401 31.5564
0.696252 4.95189 31.539
0.639763 4.94977 31.5215
0.583326 4.94764 31.5039
0.526943 4.9455 31.4862
0.41434 4.9412 31.4505
0.252478 4.94327 31.5269
-0.535476 4.96289 31.5801
-0.647348 4.95827 31.5397
-2.53604 5.04833 32.0072
2.63698 5.13105 33.2867
2.41715 5.06336 32.7741
2.35808 5.06146 32.7603
2.29151 5.05504 32.6786
2.04293 5.00012 32.361
1.91292 4.98747 32.1985
1.85492 4.98552 32.1836
1.79696 4.98356 32.1685
1.73691 4.96047 32.0582
1.67716 4.93754 31.9486
1.61965 4.93556 31.9331
1.56219 4.93356 31.9176
1.50476 4.93156 31.9019
1.44738 4.92955 31.8861
1.33274 4.92551 31.8542
1.27011 4.91925 31.7725
1.09394 4.9089 31.6578
1.03711 4.90684 31.6412
0.980319 4.90478 31.6244
0.92358 4.9027 31.6075
0.86689 4.90062 31.5905
0.810251 4.89853 31.5734
0.753662 4.89644 31.5561
0.697125 4.89434 31.5387
0.64064 4.89223 31.5212
0.584208 4.89011 31.5036
0.52783 4.88799 31.4859
0.415236 4.88372 31.4501
0.253393 4.88562 31.5264
0.0847501 4.87908 31.4707
-0.027382 4.87468 31.433
-0.13927 4.87026 31.3947
-0.31432 4.90543 31.5256
-0.646345 4.90033 31.5389
2.63775 5.07108 33.2874
2.56143 5.06006 33.1356
2.35885 5.0023 32.7608
2.29229 4.996 32.6791
2.226 4.98969 32.5973
2.17109 4.97089 32.5536
2.10206 4.94348 32.3759
2.04372 4.94156 32.3614
1.563 4.87562 31.9177
1.50558 4.87362 31.902
1.4482 4.87163 31.8862
1.27095 4.86147 31.7725
1.20859 4.85533 31.6907
1.09479 4.85126 31.6577
1.03795 4.84921 31.6411
0.98117 4.84716 31.6243
0.924435 4.8451 31.6073
0.867749 4.84303 31.5903
0.811114 4.84096 31.5732
0.75453 4.83888 31.5559
0.697997 4.83679 31.5385
0.641517 4.83469 31.521
0.585089 4.83259 31.5033
0.528716 4.83048 31.4856
0.416132 4.82624 31.4497
0.359923 4.82411 31.4316
0.254309 4.82797 31.526
0.0856816 4.82147 31.4702
-0.0264395 4.81711 31.4324
-0.533497 4.84695 31.5786
-0.645343 4.8424 31.5381
-0.879366 4.8753 31.6478
-2.53864 4.93878 32.1456
2.5541 4.99589 33.0674
2.49369 4.95555 32.925
2.42652 4.94935 32.8433
2.35963 4.94315 32.7614
2.10285 4.88491 32.3763
2.04451 4.88299 32.3617
1.97253 4.87274 32.2139
1.9145 4.87082 32.1991
1.85651 4.86888 32.1841
1.2664 4.79968 31.707
1.20943 4.79766 31.6907
1.0388 4.79159 31.641
0.982021 4.78955 31.6241
0.92529 4.7875 31.6072
0.868608 4.78544 31.5901
0.811977 4.78338 31.573
0.755397 4.78131 31.5557
0.698869 4.77924 31.5382
0.642393 4.77716 31.5207
0.58597 4.77507 31.503
0.529601 4.77297 31.4852
0.417027 4.76876 31.4493
0.360824 4.76664 31.4312
-0.3124 4.7898 31.5244
-0.424297 4.78536 31.4848
-0.534219 4.78494 31.5113
-0.64434 4.78448 31.5373
2.41948 4.88586 32.7758
2.3604 4.88399 32.7619
2.29384 4.87792 32.6802
1.97332 4.81441 32.2142
1.91529 4.81249 32.1994
1.8573 4.81056 32.1844
1.79935 4.80862 32.1693
1.73512 4.80266 32.0878
1.67537 4.78017 31.9776
1.61782 4.77822 31.9621
1.56464 4.75972 31.9179
1.50722 4.75776 31.9022
1.44412 4.75187 31.8209
1.03965 4.73396 31.6409
0.982871 4.73193 31.624
0.926144 4.7299 31.607
0.869467 4.72786 31.59
0.81284 4.72581 31.5728
0.756265 4.72376 31.5554
0.699741 4.72169 31.538
0.64327 4.71963 31.5204
0.586851 4.71755 31.5027
0.530487 4.71547 31.4849
0.417923 4.71129 31.449
0.361724 4.70919 31.4308
0.249496 4.70496 31.3941
0.0875436 4.70627 31.4692
-0.0245555 4.70198 31.4313
-0.0805137 4.69982 31.4122
-0.142264 4.71417 31.4214
-0.31144 4.732 31.5238
-0.423325 4.72759 31.4842
-0.933196 4.75666 31.6252
-0.988987 4.75437 31.604
2.36118 4.82483 32.7625
2.29462 4.81888 32.6808
2.22832 4.81293 32.5988
2.17004 4.77362 32.4585
2.10442 4.76776 32.3771
2.04609 4.76586 32.3625
1.97411 4.75607 32.2146
1.50805 4.69982 31.9023
1.44495 4.69406 31.8209
1.04049 4.67634 31.6408
0.983721 4.67432 31.6239
0.926998 4.6723 31.6069
0.870325 4.67028 31.5898
0.813703 4.66824 31.5726
0.757132 4.6662 31.5552
0.700612 4.66415 31.5378
0.644146 4.6621 31.5202
0.587732 4.66004 31.5025
0.531372 4.65797 31.4846
0.475067 4.6559 31.4667
0.418818 4.65382 31.4486
0.362624 4.65173 31.4304
0.250406 4.64754 31.3937
-0.422354 4.66982 31.4835
-0.642336 4.66864 31.5358
-0.753869 4.66418 31.4947
-0.932172 4.69851 31.6243
-0.987957 4.69624 31.6032
-2.5877 4.75365 32.0454
2.42885 4.77152 32.8451
2.36196 4.76567 32.7631
2.30292 4.7638 32.7491
2.04688 4.70729 32.3629
1.9749 4.69773 32.215
1.91687 4.69583 32.2001
1.85889 4.69392 32.185
1.80094 4.692 32.1699
1.74304 4.69008 32.1546
0.984571 4.61672 31.6238
0.927852 4.61471 31.6068
0.871183 4.61269 31.5897
0.814565 4.61067 31.5724
0.757998 4.60865 31.555
0.701484 4.60661 31.5375
0.645021 4.60457 31.5199
0.588612 4.60253 31.5022
0.532257 4.60047 31.4843
0.475957 4.59842 31.4664
0.419712 4.59635 31.4483
0.363523 4.59428 31.4301
-0.309521 4.61639 31.5226
-0.421382 4.61206 31.4828
-0.532979 4.6077 31.4427
-0.641335 4.61073 31.5351
-0.931149 4.64036 31.6235
-0.986927 4.63811 31.6023
2.49679 4.71797 32.9277
2.42963 4.71224 32.8458
2.36273 4.70651 32.7637
2.29617 4.7008 32.6819
1.97569 4.6394 32.2153
1.91767 4.6375 32.2004
1.85968 4.6356 32.1854
1.80174 4.6337 32.1702
1.73118 4.6244 32.0223
1.67779 4.60612 31.9783
1.62454 4.58783 31.9341
0.98542 4.55911 31.6237
0.928706 4.55712 31.6067
0.872041 4.55512 31.5895
0.815427 4.55311 31.5722
0.758865 4.55109 31.5548
0.702354 4.54908 31.5373
0.645897 4.54705 31.5197
0.589492 4.54502 31.5019
0.533142 4.54298 31.4841
0.476847 4.54094 31.4661
0.420607 4.53889 31.448
0.364423 4.53683 31.4297
0.252226 4.5327 31.3929
-0.0275081 4.54566 31.4582
-0.0834998 4.54356 31.439
-0.145307 4.5578 31.4482
-0.308562 4.5586 31.522
-0.420411 4.5543 31.4822
-0.930126 4.58221 31.6227
2.4304 4.65296 32.8464
2.3635 4.64735 32.7643
2.29694 4.64176 32.6825
2.23065 4.63617 32.6005
2.10678 4.59204 32.3784
2.04149 4.58655 32.2971
1.97647 4.58106 32.2157
1.91846 4.57918 32.2008
1.86048 4.57729 32.1857
1.68284 4.53179 31.9498
1.62535 4.52988 31.9343
0.986269 4.50151 31.6236
0.929559 4.49953 31.6066
0.872899 4.49754 31.5894
0.816289 4.49555 31.5721
0.759731 4.49355 31.5547
0.703225 4.49154 31.5371
0.646772 4.48953 31.5195
0.590372 4.48751 31.5017
0.534027 4.48549 31.4838
0.477736 4.48346 31.4658
0.421501 4.48143 31.4476
0.365322 4.47939 31.4294
0.253135 4.47529 31.3925
-0.419441 4.49654 31.4816
-0.531013 4.49226 31.4413
-0.639333 4.49492 31.5336
-0.695114 4.49275 31.5131
-0.763817 4.52352 31.5502
-0.929104 4.52408 31.6219
-0.984867 4.52187 31.6007
-2.60099 4.60991 32.1029
2.42334 4.59003 32.779
2.36428 4.58819 32.765
2.30525 4.58635 32.7508
2.10757 4.53346 32.3789
2.04228 4.5281 32.2976
1.97726 4.52272 32.2161
1.91925 4.52085 32.2011
1.86127 4.51897 32.186
1.80333 4.51708 32.1708
0.930412 4.44194 31.6065
0.873756 4.43997 31.5893
0.81715 4.43799 31.5719
0.760597 4.436 31.5545
0.704095 4.43401 31.5369
0.647647 4.43201 31.5192
0.591252 4.43001 31.5014
-0.306645 4.44302 31.5208
-0.41847 4.43879 31.481
-0.53003 4.43455 31.4406
-0.638332 4.43702 31.5329
-0.928081 4.46594 31.6211
-0.983838 4.46376 31.5999
2.36505 4.52903 32.7656
2.29849 4.52368 32.6837
2.0361 4.46625 32.2314
1.97805 4.46439 32.2165
1.92003 4.46252 32.2015
0.931264 4.38435 31.6064
0.874612 4.38239 31.5891
0.818011 4.38043 31.5718
0.704965 4.37648 31.5367
0.648521 4.3745 31.519
0.592131 4.37251 31.5012
0.535794 4.37052 31.4833
0.479513 4.36852 31.4652
0.423288 4.36651 31.447
0.367119 4.3645 31.4287
0.254952 4.36047 31.3918
0.0758621 4.38664 31.3917
-0.0865348 4.387 31.4661
-0.142498 4.38494 31.4467
-0.305687 4.38523 31.5203
-0.4175 4.38105 31.4804
-0.927059 4.40781 31.6203
-2.59299 4.48387 31.9582
-2.64809 4.4815 31.9332
2.30307 4.44817 32.6542
2.2368 4.44301 32.5725
2.18202 4.42477 32.5284
2.10914 4.41632 32.3798
2.04385 4.41119 32.2985
1.97883 4.40605 32.2169
0.932116 4.32677 31.6063
0.875469 4.32482 31.589
0.818872 4.32287 31.5717
0.705835 4.31895 31.5366
0.649395 4.31698 31.5188
0.593009 4.31501 31.501
0.536678 4.31303 31.483
0.480401 4.31105 31.4649
0.424181 4.30906 31.4467
0.368017 4.30707 31.4284
0.25586 4.30307 31.3914
-0.304729 4.32745 31.5197
-0.41653 4.3233 31.4798
-0.528065 4.31913 31.4393
-0.636332 4.32124 31.5315
-0.705033 4.35174 31.5688
-0.760827 4.34963 31.548
-0.926038 4.34969 31.6196
-2.59726 4.43167 32.0987
-2.69326 4.40317 31.8761
2.04464 4.35273 32.2989
1.97962 4.34772 32.2173
0.932968 4.26919 31.6062
0.876325 4.26726 31.5889
0.819732 4.26532 31.5716
-0.0846752 4.27174 31.4652
-0.140627 4.26972 31.4457
-0.196516 4.26768 31.4262
-0.415561 4.26556 31.4792
-0.527084 4.26143 31.4387
-0.925016 4.29157 31.6188
2.03845 4.29121 32.2327
0.933819 4.21161 31.6062
0.87718 4.20969 31.5889
0.820592 4.20777 31.5714
0.707572 4.2039 31.5363
0.651142 4.20197 31.5185
0.538443 4.19808 31.4826
0.482176 4.19612 31.4644
0.425966 4.19417 31.4462
0.369811 4.19221 31.4278
0.257675 4.18827 31.3907
0.201694 4.18629 31.372
0.0785886 4.21426 31.3906
-0.083746 4.21412 31.4647
-0.139692 4.21211 31.4453
-0.758835 4.23372 31.5467
-0.923996 4.23345 31.618
-0.979725 4.23135 31.5967
2.16983 4.24241 32.396
2.11149 4.2406 32.3813
0.878035 4.15213 31.5888
0.821451 4.15022 31.5714
0.70844 4.14638 31.5361
0.652014 4.14446 31.5183
0.539325 4.1406 31.4823
0.483063 4.13866 31.4642
0.426857 4.13672 31.4459
-0.194635 4.15251 31.4252
-0.413624 4.1501 31.478
-0.469406 4.14808 31.4578
-0.525121 4.14605 31.4374
-0.702066 4.17783 31.5669
-0.75784 4.17577 31.546
-2.59353 4.25348 32.0946
-2.69807 4.24271 31.9023
-0.0818886 4.09889 31.4639
-0.193695 4.09493 31.4247
-0.412656 4.09237 31.4774
-0.468432 4.09037 31.4572
-0.921955 4.11724 31.6166
0.879744 4.03701 31.5887
0.823169 4.03513 31.5712
0.710175 4.03135 31.5358
0.653759 4.02946 31.518
0.541088 4.02566 31.4819
0.484836 4.02375 31.4637
0.428639 4.02184 31.4454
0.3725 4.01993 31.427
0.310936 4.03382 31.4367
0.24933 4.04771 31.4463
0.193264 4.04578 31.4275
0.081312 4.04192 31.3895
-0.0809606 4.04127 31.4635
-0.192756 4.03736 31.4243
-0.700089 4.06191 31.5656
-0.75585 4.05989 31.5447
-0.81154 4.05788 31.5236
-0.976644 4.0571 31.5944
-2.59105 4.13473 32.0919
-2.64061 4.12677 31.9249
-2.69556 4.12456 31.8995
0.824026 3.97758 31.5711
0.711042 3.97384 31.5357
0.65463 3.97196 31.5179
-0.191817 3.97978 31.4238
-0.303343 3.97589 31.3841
-0.466485 3.97497 31.456
-0.522181 3.973 31.4356
-0.699102 4.00396 31.565
-0.754856 4.00196 31.544
-0.810539 3.99996 31.523
-1.15538 4.03032 31.723
-2.63937 4.06767 31.9235
-2.6943 4.06549 31.8982
0.0831257 3.92703 31.3888
-0.0791059 3.92606 31.4627
-0.190878 3.92221 31.4234
-0.302393 3.91836 31.3836
-0.809539 3.94206 31.5223
-0.918898 3.94295 31.6144
-0.974593 3.94096 31.5929
-1.15434 3.97197 31.7222
-2.58857 4.01601 32.0892
2.63415 4.04611 33.163
0.825741 3.8625 31.571
0.712774 3.85882 31.5355
0.656371 3.85697 31.5176
0.543728 3.85327 31.4814
0.48749 3.85141 31.4631
0.369733 3.86333 31.4546
0.308113 3.87711 31.4643
0.252003 3.87523 31.4455
0.195953 3.87336 31.4266
0.0840319 3.8696 31.3885
-0.0781793 3.86845 31.4623
-0.18994 3.86465 31.4229
-0.697128 3.88806 31.5638
-0.752869 3.88611 31.5428
-0.808539 3.88415 31.5217
-0.91788 3.88487 31.6137
-2.63688 3.9495 31.9209
-2.6918 3.94738 31.8954
2.6349 3.98635 33.1639
2.55892 3.97959 33.012
1.62633 3.86586 31.995
0.770092 3.80314 31.5533
-0.0772531 3.81086 31.4619
-0.189003 3.80709 31.4225
-0.300494 3.80331 31.3826
-0.469837 3.81764 31.4832
-0.531884 3.83147 31.4914
-0.696142 3.83012 31.5632
-0.751876 3.82819 31.5421
-0.807539 3.82625 31.521
-1.15227 3.8553 31.7207
-1.26363 3.85135 31.6765
-2.63564 3.89042 31.9195
-2.69054 3.88833 31.8941
-2.74535 3.88623 31.8685
2.55161 3.91768 32.9442
1.68468 3.80958 32.0113
1.62713 3.80781 31.9954
1.55772 3.80178 31.8473
0.197743 3.75842 31.4261
0.0858429 3.75473 31.3879
-0.0763275 3.75326 31.4615
-0.188066 3.74953 31.4221
-0.299546 3.74579 31.3822
-0.750884 3.77027 31.5415
-0.806541 3.76836 31.5204
-0.97152 3.76678 31.5908
-1.15124 3.79697 31.72
-2.68929 3.82929 31.8928
2.63642 3.86681 33.1658
1.74306 3.75327 32.0275
1.68547 3.75152 32.0117
1.62792 3.74977 31.9958
1.55851 3.74396 31.8476
1.50128 3.7422 31.8315
0.771811 3.6881 31.5532
0.715368 3.6863 31.5353
0.653761 3.69999 31.5458
0.541045 3.69638 31.5094
0.48477 3.69457 31.4911
0.36692 3.70643 31.4824
0.310767 3.70461 31.4637
0.254672 3.70279 31.4448
0.198637 3.70096 31.4259
0.0867476 3.69731 31.3876
-0.0754025 3.69567 31.4612
-0.18713 3.69197 31.4217
-0.694171 3.71425 31.562
-0.749892 3.71236 31.5409
-0.805542 3.71047 31.5198
-1.26154 3.73478 31.6749
-2.63883 3.77661 32.0586
-2.68804 3.77026 31.8914
2.63718 3.80704 33.1667
1.74385 3.6952 32.0279
0.77267 3.63059 31.5532
-0.074478 3.63808 31.4609
-0.186194 3.63442 31.4213
-0.29765 3.63076 31.3813
-0.473238 3.66001 31.5105
-0.528999 3.65816 31.4899
-0.693186 3.65632 31.5615
-0.748901 3.65445 31.5404
-1.14917 3.68032 31.7185
-1.26049 3.67651 31.6742
-2.68679 3.71124 31.8901
2.56194 3.74145 33.0156
2.49393 3.70413 32.8043
2.422 3.71028 32.7191
1.74463 3.63713 32.0283
1.68705 3.6354 32.0125
1.62951 3.63367 31.9965
1.5601 3.62832 31.8483
1.50288 3.62659 31.8321
0.368677 3.5914 31.4821
0.312533 3.58962 31.4633
0.256449 3.58783 31.4444
0.200424 3.58604 31.4254
0.0885556 3.58246 31.3871
-0.0735541 3.58049 31.4605
-0.185258 3.57687 31.4209
-0.692202 3.5984 31.5609
-0.747911 3.59655 31.5398
-0.803547 3.5947 31.5186
-2.63634 3.65803 32.056
-2.68554 3.65222 31.8888
2.71534 3.6931 33.3215
2.63869 3.68749 33.1687
2.43562 3.64323 32.7909
2.36123 3.63784 32.6406
1.8607 3.58249 32.0601
1.80304 3.58077 32.0445
1.74542 3.57906 32.0288
1.68784 3.57734 32.0129
1.62423 3.57392 31.9309
1.56089 3.57051 31.8487
1.50367 3.56879 31.8324
1.4465 3.56706 31.8161
0.717956 3.51381 31.5352
0.656344 3.52738 31.5456
0.482006 3.53743 31.5192
0.369554 3.5339 31.4819
0.313416 3.53213 31.4632
0.257336 3.53036 31.4442
0.201317 3.52859 31.4252
0.0894587 3.52504 31.3868
-0.0726308 3.52291 31.4602
-0.582757 3.54083 31.4682
-0.802551 3.53683 31.518
-1.2584 3.55998 31.6727
-2.68429 3.59321 31.8875
2.63944 3.62771 33.1697
2.56344 3.62237 33.0175
2.36199 3.57889 32.6414
1.9326 3.52932 32.209
1.86148 3.52439 32.0607
1.80382 3.52269 32.045
1.74621 3.52099 32.0292
0.0903613 3.46763 31.3865
-0.0717081 3.46533 31.4599
-0.18339 3.46179 31.4202
-0.239133 3.46001 31.4002
-0.294811 3.45824 31.38
-0.526118 3.48488 31.4885
-0.581791 3.48309 31.4677
2.56419 3.56283 33.0184
2.49621 3.52655 32.8069
2.42155 3.52162 32.6567
2.36275 3.51994 32.6422
2.28899 3.51505 32.4925
1.92667 3.46949 32.1432
1.86226 3.4663 32.0612
1.80461 3.46461 32.0455
1.74699 3.46291 32.0297
1.68942 3.46122 32.0138
1.62581 3.45804 31.9317
1.56247 3.45487 31.8494
0.371308 3.41889 31.4817
0.315179 3.41716 31.4629
0.25911 3.41542 31.4439
0.2031 3.41369 31.4248
0.0912633 3.41021 31.3863
-0.0707861 3.40775 31.4596
-0.182456 3.40425 31.4198
-0.580826 3.42536 31.4672
-0.80056 3.42108 31.5168
-2.68179 3.47521 31.8849
-2.80863 3.50329 31.8942
2.64095 3.50815 33.1717
2.42231 3.46266 32.6576
2.36351 3.46098 32.6431
2.28975 3.45632 32.4933
2.23126 3.45465 32.4785
1.92745 3.41127 32.1437
1.86304 3.4082 32.0617
1.80539 3.40652 32.046
1.74778 3.40484 32.0302
1.69021 3.40316 32.0143
1.6266 3.40011 31.9321
1.56327 3.39706 31.8498
1.50605 3.39537 31.8335
1.44889 3.39369 31.8171
1.39177 3.39201 31.8005
0.653667 3.36994 31.5741
0.484606 3.36482 31.519
0.372184 3.36139 31.4816
0.31606 3.35968 31.4627
0.203991 3.35624 31.4246
0.0921647 3.3528 31.3861
-0.0698648 3.35018 31.4593
-0.468472 3.37114 31.5083
-0.524201 3.36939 31.4876
-0.579861 3.36764 31.4668
2.6417 3.44837 33.1728
2.5657 3.44374 33.0204
2.36427 3.40203 32.6439
2.23202 3.39594 32.4793
2.04283 3.38822 32.2996
1.9929 3.35601 32.2262
1.92823 3.35305 32.1443
1.86382 3.35011 32.0622
1.80617 3.34844 32.0465
1.74856 3.34677 32.0307
0.204881 3.2988 31.4245
0.0930654 3.2954 31.3859
0.0372502 3.29369 31.3664
-0.0689441 3.2926 31.459
-0.180591 3.28918 31.4192
-0.236317 3.28747 31.3991
-0.298094 3.30094 31.4074
-0.359904 3.31441 31.4156
-0.46752 3.31337 31.5079
-0.578897 3.30991 31.4663
2.56645 3.38419 33.0214
2.49849 3.34895 32.8096
2.42382 3.34473 32.6593
2.36503 3.34307 32.6447
1.99368 3.29767 32.2268
1.929 3.29484 32.1449
1.8646 3.29201 32.0628
1.80695 3.29035 32.0471
1.74934 3.2887 32.0312
1.69178 3.28704 32.0152
1.62818 3.28423 31.933
1.56485 3.28142 31.8506
1.50764 3.27977 31.8343
1.45048 3.27811 31.8178
1.39337 3.27645 31.8012
1.33085 3.27367 31.7187
0.486336 3.24975 31.5189
0.373933 3.2464 31.4814
0.317819 3.24472 31.4625
0.205771 3.24136 31.4243
0.0939655 3.23799 31.3857
0.0381557 3.23631 31.3661
-0.0680241 3.23504 31.4587
-0.17966 3.23165 31.4189
-0.577934 3.25219 31.4659
-0.797578 3.2475 31.5152
-2.67805 3.29827 31.8812
-2.73276 3.29647 31.8554
-2.80489 3.32618 31.8904
2.70294 3.33045 33.1888
2.42458 3.28576 32.6602
2.36579 3.28411 32.6456
2.29202 3.28015 32.4956
1.92306 3.23555 32.079
1.86538 3.23391 32.0634
1.80773 3.23227 32.0476
1.75013 3.23063 32.0317
1.69257 3.22898 32.0157
1.62896 3.22629 31.9334
1.56563 3.22361 31.8511
1.50843 3.22197 31.8347
1.45128 3.22032 31.8182
1.39417 3.21868 31.8015
1.33165 3.21601 31.719
0.610473 3.16556 31.4987
0.4872 3.19223 31.5188
0.374807 3.1889 31.4813
0.318698 3.18724 31.4624
0.20666 3.18392 31.4242
0.150732 3.18225 31.4049
0.094865 3.18059 31.3855
0.0390605 3.17893 31.3659
-0.576971 3.19448 31.4654
-1.03069 3.21532 31.6212
2.56794 3.26508 33.0234
2.36655 3.22515 32.6465
2.29278 3.22143 32.4965
2.2343 3.21979 32.4816
2.17586 3.21816 32.4666
2.05322 3.18263 32.2435
1.99523 3.18099 32.2281
1.93055 3.1784 32.1461
1.86615 3.17582 32.0639
1.80851 3.17419 32.0482
1.75091 3.17255 32.0322
1.69335 3.17092 32.0162
0.319576 3.12977 31.4623
0.207548 3.12648 31.424
0.151625 3.12484 31.4047
0.0957637 3.12319 31.3853
0.0399646 3.12155 31.3657
-0.1778 3.1166 31.4183
-0.239594 3.12997 31.4267
-0.301424 3.14334 31.4349
-0.357101 3.14169 31.4145
-0.576009 3.13677 31.465
-1.02969 3.15723 31.6207
2.62815 3.20716 33.0386
2.56869 3.20553 33.0244
2.50076 3.17134 32.8125
2.42608 3.16782 32.662
2.3673 3.16619 32.6473
2.05399 3.12427 32.2442
1.996 3.12265 32.2288
1.93133 3.12018 32.1467
1.86693 3.11772 32.0645
1.80929 3.1161 32.0487
1.75169 3.11448 32.0328
1.63054 3.11042 31.9344
1.56721 3.10798 31.8519
1.51002 3.10636 31.8355
1.45287 3.10475 31.819
1.39576 3.10313 31.8023
1.33325 3.10071 31.7197
1.27101 3.0983 31.637
0.485187 3.07643 31.4531
0.320454 3.0723 31.4622
0.208436 3.06905 31.4239
0.152518 3.06742 31.4046
0.0966618 3.06579 31.3851
0.040868 3.06417 31.3655
-0.575048 3.07906 31.4646
-0.686093 3.07577 31.4224
-1.02868 3.09913 31.6201
-2.80116 3.14912 31.8867
2.64546 3.14942 33.1781
2.42684 3.10885 32.6629
2.36806 3.10723 32.6482
2.29429 3.10397 32.4981
2.23581 3.10236 32.4832
1.92538 3.06123 32.0808
1.8677 3.05962 32.0651
1.81007 3.05802 32.0493
1.62523 3.05177 31.8687
1.568 3.05017 31.8524
1.51081 3.04856 31.8359
1.45366 3.04696 31.8194
1.39656 3.04536 31.8027
1.33951 3.04375 31.7858
1.27181 3.04077 31.6373
1.21508 3.03918 31.6202
0.602384 3.02287 31.556
0.486048 3.01901 31.4531
0.32133 3.01483 31.4622
0.209323 3.01161 31.4238
0.15341 3.01001 31.4044
0.0975591 3.0084 31.3849
-0.29957 3.02817 31.4343
-0.355235 3.02655 31.4139
-0.574088 3.02136 31.4642
-1.02767 3.04104 31.6196
-1.26331 3.06622 31.7254
2.70593 3.09125 33.1933
2.63792 3.08883 33.11
2.42759 3.04987 32.6638
2.36881 3.04827 32.6491
2.29504 3.04524 32.499
2.23657 3.04364 32.484
2.05553 3.00757 32.2456
1.99754 3.00597 32.2301
1.93288 3.00374 32.148
1.86848 3.00153 32.0657
1.81084 2.99993 32.0499
0.483164 2.96108 31.3874
0.322206 2.95736 31.4621
0.210209 2.95419 31.4237
0.154301 2.9526 31.4043
0.0984556 2.95101 31.3848
0.0426726 2.94942 31.3652
-0.0687032 2.94625 31.3256
-0.242918 2.97218 31.4544
-0.298644 2.97058 31.4341
-0.354303 2.96899 31.4136
-0.573128 2.96365 31.4638
-1.02667 2.98296 31.619
2.63039 3.02846 33.0419
2.55474 3.02551 32.8899
2.50302 2.99372 32.8154
2.42834 2.9909 32.6647
2.36957 2.9893 32.6501
1.99832 2.94763 32.2308
1.93365 2.94552 32.1487
1.86925 2.94343 32.0664
1.81162 2.94184 32.0505
1.6268 2.93611 31.8697
1.56957 2.93454 31.8534
1.51238 2.93296 31.8369
1.45524 2.93138 31.8202
1.39815 2.92981 31.8035
1.3411 2.92823 31.7866
1.21669 2.92415 31.6209
0.54777 2.90619 31.5376
0.487766 2.9042 31.4531
0.323082 2.8999 31.4621
0.211094 2.89676 31.4236
0.155192 2.89519 31.4042
0.0993515 2.89362 31.3847
0.0435738 2.89205 31.365
-0.572169 2.90596 31.4634
-0.683176 2.9028 31.421
-1.02566 2.92488 31.6185
-2.68801 2.97538 31.9352
-2.74277 2.97375 31.9092
-2.79743 2.97213 31.8831
2.70742 2.97163 33.1956
2.42909 2.93192 32.6657
2.36269 2.92985 32.5833
2.29655 2.92778 32.5007
2.23808 2.92619 32.4857
1.92769 2.8869 32.0828
1.87002 2.88533 32.067
1.8124 2.88376 32.0511
1.62758 2.87828 31.8703
1.57035 2.87672 31.8539
1.51317 2.87516 31.8373
1.45604 2.8736 31.8207
1.39895 2.87204 31.8039
1.3419 2.87047 31.787
1.21749 2.86664 31.6212
1.16082 2.86509 31.6039
0.548626 2.84865 31.5376
0.488625 2.84679 31.4532
0.323956 2.84244 31.462
0.211978 2.83933 31.4235
-0.296795 2.85543 31.4336
-0.352442 2.85387 31.413
-0.571211 2.84826 31.4631
-1.02466 2.8668 31.618
-1.26024 2.89124 31.7237
2.63187 2.90932 33.0441
2.36344 2.87099 32.5842
2.2973 2.86904 32.5016
2.23883 2.86747 32.4866
2.11182 2.84884 32.2923
2.05783 2.8325 32.2478
1.99986 2.83094 32.2322
1.93519 2.82908 32.15
1.8708 2.82723 32.0677
1.81317 2.82567 32.0517
1.62836 2.82046 31.8708
0.489482 2.78938 31.4532
0.32483 2.78498 31.462
0.212862 2.78191 31.4234
0.15697 2.78038 31.404
0.101141 2.77885 31.3844
0.0453738 2.77732 31.3647
-0.0718813 2.78891 31.3532
-0.240162 2.79938 31.4538
-0.351512 2.79632 31.4127
-1.02365 2.80873 31.6175
-2.68557 2.8573 31.933
-2.74031 2.85573 31.9069
-2.79167 2.85389 31.81
2.63261 2.84974 33.0452
2.50527 2.81608 32.8185
2.4306 2.81396 32.6676
2.36419 2.81213 32.5852
2.00063 2.77259 32.233
1.93596 2.77086 32.1507
1.87157 2.76913 32.0683
1.81395 2.76759 32.0524
1.62914 2.76263 31.8713
1.57192 2.76109 31.8549
1.51475 2.75956 31.8383
1.40053 2.75649 31.8048
1.3435 2.75496 31.7878
1.16243 2.7501 31.6046
0.490339 2.73198 31.4533
0.325702 2.72752 31.462
0.213745 2.72449 31.4234
0.157859 2.72298 31.4039
0.0462725 2.71996 31.3646
-0.350584 2.73877 31.4125
-0.569297 2.73289 31.4624
-0.686795 2.74459 31.4485
-1.2582 2.77461 31.7225
-2.73908 2.79673 31.9058
-2.79044 2.79504 31.8088
2.43134 2.75498 32.6686
2.36494 2.75327 32.5861
2.2988 2.75157 32.5034
2.24034 2.75002 32.4884
1.87234 2.71103 32.069
1.81472 2.7095 32.053
1.62992 2.7048 31.8719
1.5727 2.70328 31.8554
1.51553 2.70176 31.8388
1.40133 2.69872 31.8052
1.33882 2.69717 31.7224
1.16323 2.69261 31.6049
1.10663 2.6911 31.5875
0.491195 2.67458 31.4533
0.326574 2.67006 31.462
-0.238329 2.6842 31.4534
-0.349656 2.68122 31.4122
-0.568342 2.6752 31.4621
-1.02165 2.6926 31.6165
-1.14657 2.71924 31.6301
-1.25718 2.7163 31.722
-2.73785 2.73774 31.9047
-2.7892 2.7362 31.8077
2.63409 2.73058 33.0475
2.36569 2.69441 32.5871
2.29955 2.69283 32.5044
2.24109 2.69129 32.4893
2.16821 2.6897 32.3393
2.11814 2.65896 32.2656
2.06013 2.65743 32.2501
2.00216 2.6559 32.2345
1.93077 2.65445 32.0856
1.87311 2.65293 32.0697
1.81549 2.65141 32.0537
1.57348 2.64546 31.856
0.49205 2.61718 31.4534
0.327445 2.61261 31.462
0.159632 2.60819 31.4038
0.0480675 2.60524 31.3644
-0.0751046 2.63127 31.3811
-0.237414 2.62662 31.4532
-0.348729 2.62368 31.412
-0.911169 2.63773 31.5246
-2.73662 2.67875 31.9036
-2.78797 2.67736 31.8065
2.63483 2.671 33.0487
2.55918 2.66947 32.8964
2.49958 2.63848 32.7535
2.43284 2.63701 32.6707
2.36643 2.63555 32.5881
2.3003 2.63409 32.5053
1.93153 2.59633 32.0863
1.87388 2.59483 32.0704
1.81626 2.59332 32.0544
1.63148 2.58914 31.873
1.57427 2.58765 31.8565
1.5171 2.58616 31.8399
1.40291 2.58318 31.8062
1.34041 2.58187 31.7233
1.16484 2.57762 31.6057
1.10824 2.57615 31.5882
1.05169 2.57467 31.5705
0.496657 2.55954 31.5193
0.324907 2.55541 31.3963
0.160518 2.55079 31.4037
0.104709 2.54934 31.3841
-0.347803 2.56614 31.4118
-0.566434 2.55985 31.4614
-0.628433 2.57297 31.4689
-0.690462 2.58608 31.4762
-0.910186 2.57985 31.5242
-1.14457 2.60299 31.6291
-1.25514 2.59969 31.721
-2.7354 2.61977 31.9025
-2.78999 2.61833 31.8762
2.43359 2.57802 32.6717
2.36718 2.57668 32.589
2.30105 2.57535 32.5063
2.24259 2.57383 32.4911
1.87465 2.53673 32.0711
1.81703 2.53523 32.055
1.7468 2.53428 31.9064
1.63225 2.53132 31.8736
1.57505 2.52983 31.8571
1.51788 2.52836 31.8404
1.3412 2.52423 31.7238
1.16564 2.52013 31.606
1.10904 2.51867 31.5885
1.0525 2.51721 31.5709
0.385234 2.49915 31.4813
0.329185 2.49771 31.4621
-0.235585 2.51145 31.4528
-0.346877 2.5086 31.4116
-1.01865 2.51843 31.6151
-1.14357 2.54487 31.6287
-1.25413 2.54139 31.7205
-2.7855 2.55971 31.8043
2.63631 2.55182 33.0511
2.36793 2.51781 32.5901
2.30179 2.51661 32.5072
2.24334 2.5151 32.4921
2.17446 2.49978 32.3127
2.11637 2.49828 32.2973
1.93306 2.4801 32.0878
1.87541 2.47862 32.0718
1.8178 2.47714 32.0557
1.74757 2.47642 31.907
1.63303 2.47349 31.8742
1.57583 2.47202 31.8577
0.386098 2.44168 31.4814
0.326642 2.44073 31.3964
0.162286 2.43601 31.4037
0.0449053 2.44751 31.3925
-0.0108163 2.4461 31.3725
-0.0724228 2.45901 31.3808
-0.345953 2.45106 31.4114
-0.688558 2.47061 31.4756
-0.908224 2.46411 31.5234
-1.14258 2.48676 31.6282
-1.25311 2.4831 31.72
-2.73295 2.50183 31.9003
-2.78427 2.5009 31.8032
2.64073 2.4776 33.0217
2.56511 2.47683 32.8697
2.50182 2.46114 32.7568
2.43508 2.46004 32.6738
2.36867 2.45895 32.5911
1.93383 2.42199 32.0885
1.87618 2.42052 32.0725
1.81213 2.41954 31.9902
1.74834 2.41857 31.9077
1.69105 2.41711 31.8913
1.63381 2.41566 31.8748
1.5766 2.4142 31.8582
1.51945 2.41275 31.8415
1.34278 2.40893 31.7247
1.28057 2.40801 31.6416
1.16724 2.40515 31.6068
1.11065 2.40372 31.5893
1.05412 2.4023 31.5716
0.997629 2.40087 31.5538
0.386961 2.38422 31.4815
0.324096 2.38398 31.3306
-0.345029 2.39353 31.4112
-0.456022 2.39078 31.3694
-0.632096 2.41425 31.4968
-1.14158 2.42865 31.6278
-1.2521 2.42481 31.7195
-2.78629 2.44152 31.8729
2.51051 2.40151 32.8261
2.43582 2.40105 32.6749
2.36942 2.40008 32.5921
2.30328 2.39911 32.5092
2.24483 2.39763 32.494
1.87694 2.36241 32.0733
1.81289 2.36156 31.9909
1.74911 2.36071 31.9083
1.69182 2.35927 31.892
1.63458 2.35783 31.8755
1.57738 2.35639 31.8589
1.52023 2.35495 31.8421
1.3381 2.35191 31.6593
1.28136 2.35049 31.6421
1.16804 2.34766 31.6073
1.11146 2.34625 31.5897
1.05492 2.34484 31.5719
0.99844 2.34343 31.5541
0.387822 2.32675 31.4816
0.331787 2.32537 31.4623
-0.0706392 2.34418 31.3806
-0.23285 2.33872 31.4524
-0.344107 2.336 31.411
-0.455088 2.33329 31.3692
-0.906265 2.34838 31.5227
-1.14058 2.37055 31.6274
-2.7305 2.38391 31.8982
-2.78181 2.38329 31.8011
2.25356 2.31027 32.4357
2.1227 2.30871 32.2707
1.93535 2.30575 32.0901
1.87771 2.30431 32.0741
1.81366 2.30358 31.9916
1.74988 2.30285 31.909
1.69259 2.30142 31.8926
1.63535 2.3 31.8761
1.52101 2.29715 31.8427
