0.337103 8.41615 31.6215
0.223695 8.4103 31.5879
2.09545 8.64439 32.7695
2.03625 8.64214 32.7565
1.83994 8.55008 32.3909
1.78144 8.54772 32.3773
1.72298 8.54534 32.3636
1.59796 8.49847 32.1748
1.54389 8.47601 32.1326
1.4859 8.47353 32.1184
1.30121 8.44431 31.9435
0.793615 8.38072 31.7505
0.736499 8.37797 31.7347
0.67943 8.3752 31.7187
0.565434 8.36961 31.6865
0.508508 8.36679 31.6702
0.394805 8.36107 31.6373
0.338029 8.35818 31.6206
0.224632 8.35235 31.5869
0.168012 8.3494 31.5699
0.0549315 8.34344 31.5355
-0.00152722 8.34044 31.5182
-0.0579307 8.33741 31.5007
-0.114278 8.33436 31.4831
-0.226804 8.32821 31.4475
-0.28298 8.3251 31.4295
-0.395157 8.31883 31.3933
-1.17076 8.33733 31.5211
2.03705 8.58281 32.7565
1.96416 8.55824 32.6084
1.90599 8.5046 32.4709
1.84075 8.49131 32.3907
1.54472 8.41757 32.1322
1.48673 8.4151 32.118
1.30205 8.38611 31.9431
1.24445 8.38356 31.9283
1.12937 8.37839 31.8984
0.395728 8.3031 31.6364
0.338957 8.30022 31.6197
0.22557 8.2944 31.586
0.168955 8.29147 31.569
0.0558849 8.28553 31.5345
-0.000568497 8.28254 31.5172
-0.0569666 8.27952 31.4996
-0.113309 8.27648 31.482
-0.169594 8.27343 31.4643
-0.225823 8.27035 31.4464
-0.281994 8.26726 31.4284
-0.394159 8.26101 31.3921
2.09703 8.52573 32.7695
1.84155 8.43253 32.3905
1.78306 8.43018 32.3769
1.30289 8.32792 31.9427
1.24529 8.32537 31.9279
1.18774 8.32281 31.913
1.13022 8.32022 31.898
1.07275 8.31761 31.8828
1.01532 8.31498 31.8675
0.957936 8.31233 31.8521
0.905171 8.28986 31.8085
0.852549 8.26736 31.7648
0.795397 8.26465 31.7491
0.73829 8.26192 31.7332
0.681229 8.25917 31.7173
0.567252 8.25362 31.6849
0.510336 8.25081 31.6686
0.396652 8.24513 31.6356
0.339886 8.24226 31.6189
0.226509 8.23647 31.5851
0.169899 8.23354 31.568
0.0568392 8.22763 31.5336
0.000391223 8.22464 31.5162
-0.0560015 8.22163 31.4986
-0.112338 8.21861 31.481
-0.168618 8.21556 31.4632
-0.224841 8.2125 31.4453
-0.281006 8.20942 31.4273
-0.393159 8.20319 31.3909
-0.771559 8.14127 31.2039
-1.16949 8.19954 31.3858
-1.28052 8.19269 31.3457
2.09783 8.46641 32.7694
2.03864 8.46416 32.7564
1.84236 8.37376 32.3904
1.78387 8.37142 32.3767
1.60042 8.32301 32.1739
1.54638 8.30071 32.1315
1.4884 8.29826 32.1172
1.30373 8.26973 31.9422
0.568162 8.19562 31.6842
0.511251 8.19283 31.6678
0.397577 8.18717 31.6347
0.340816 8.18431 31.618
0.227448 8.17853 31.5842
0.170843 8.17562 31.5671
0.0577946 8.16972 31.5326
0.00135191 8.16675 31.5151
-0.111367 8.16074 31.4799
-0.167641 8.15771 31.4621
-0.223858 8.15466 31.4442
-0.280017 8.15158 31.4262
-0.392159 8.14539 31.3898
-0.770493 8.08365 31.2025
-1.16838 8.14148 31.3843
-1.2794 8.13467 31.3441
-1.3348 8.13123 31.3239
1.96654 8.38095 32.6081
1.91514 8.33857 32.5371
1.84317 8.315 32.3902
1.78468 8.31265 32.3765
1.30457 8.21155 31.9418
1.24698 8.20902 31.927
1.18943 8.20646 31.912
1.13192 8.20389 31.897
1.07446 8.20129 31.8818
1.01704 8.19868 31.8665
0.959661 8.19604 31.851
0.171789 8.1177 31.5662
0.0587508 8.11183 31.5316
0.00231354 8.10886 31.5142
-0.110394 8.10288 31.4789
-0.166663 8.09986 31.4611
-0.222874 8.09682 31.4431
-0.279028 8.09376 31.4251
2.10659 8.35851 32.8372
1.84398 8.25623 32.39
1.78549 8.25389 32.3763
1.30541 8.15337 31.9414
1.24782 8.15084 31.9265
1.19028 8.14829 31.9116
1.13278 8.14573 31.8965
1.07532 8.14314 31.8813
1.0179 8.14053 31.8659
0.960524 8.13791 31.8505
0.903195 8.13526 31.8349
0.84591 8.1326 31.8192
0.73623 8.10755 31.7593
0.683935 8.08516 31.7151
0.569985 8.07966 31.6826
0.513083 8.07688 31.6662
0.342677 8.06842 31.6163
0.22933 8.06268 31.5824
0.172736 8.05979 31.5652
0.059708 8.05394 31.5306
0.00327608 8.05099 31.5132
-0.109421 8.04502 31.4778
-0.165684 8.04201 31.46
-0.22189 8.03899 31.442
-0.278037 8.03594 31.424
-0.334126 8.03287 31.4058
-0.390156 8.02979 31.3875
-1.16616 8.02539 31.3813
-1.27715 8.01864 31.3411
-1.33253 8.01524 31.3208
2.10022 8.28844 32.7694
2.03404 8.27562 32.6888
1.96813 8.26277 32.608
1.78631 8.19514 32.3762
1.5989 8.1673 32.2014
1.54483 8.14516 32.1589
1.49091 8.12301 32.1162
1.30625 8.0952 31.941
1.24867 8.09267 31.9261
1.19113 8.09013 31.9111
0.514001 8.01891 31.6654
0.34361 8.01048 31.6154
0.173683 8.00188 31.5643
0.060666 7.99605 31.5297
0.0042395 7.99311 31.5122
-0.108446 7.98717 31.4768
-0.164704 7.98418 31.4589
-0.220904 7.98116 31.441
-0.277046 7.97813 31.4229
-0.333129 7.97507 31.4047
-1.27602 7.96064 31.3395
-1.3314 7.95725 31.3192
2.03484 8.21642 32.6888
1.96893 8.20368 32.608
1.91084 8.15132 32.47
1.8456 8.13872 32.3897
1.78712 8.13639 32.376
1.30709 8.03702 31.9405
1.24951 8.03451 31.9257
1.19198 8.03197 31.9106
1.13448 8.02942 31.8955
1.07703 8.02685 31.8802
1.01962 8.02426 31.8649
-0.107471 7.92933 31.4758
-0.821645 7.85006 31.1778
2.03563 8.15722 32.6887
1.84641 8.07996 32.3895
1.78793 8.07763 32.3758
1.25036 7.97635 31.9252
1.19283 7.97382 31.9102
1.13534 7.97127 31.895
1.07789 7.96871 31.8797
1.02048 7.96612 31.8643
0.905803 7.9609 31.8332
0.848531 7.95826 31.8174
0.734125 7.95292 31.7855
0.686648 7.9112 31.7129
0.515838 7.90299 31.6638
0.345476 7.89462 31.6137
0.175581 7.88609 31.5625
0.0625846 7.8803 31.5277
0.00616889 7.87739 31.5102
-0.106495 7.87149 31.4747
-0.162741 7.86852 31.4568
-0.21893 7.86553 31.4388
-0.27506 7.86252 31.4207
-0.331132 7.85949 31.4024
-1.16282 7.85131 31.3769
-1.27376 7.84466 31.3365
2.03643 8.09802 32.6887
1.78875 8.01889 32.3756
1.60134 7.99175 32.2007
1.54732 7.96978 32.158
1.49343 7.94779 32.1151
1.30878 7.92069 31.9397
1.25121 7.91819 31.9248
1.19368 7.91567 31.9097
1.13619 7.91313 31.8946
1.07875 7.91057 31.8793
0.176531 7.8282 31.5616
0.00713479 7.81953 31.5092
-0.105518 7.81366 31.4737
-0.161759 7.8107 31.4558
-0.217942 7.80772 31.4377
-0.274066 7.80472 31.4196
-0.330132 7.80171 31.4013
2.03723 8.03883 32.6887
1.97132 8.02644 32.6078
1.89903 8.004 32.46
1.84803 7.96246 32.3892
1.78956 7.96014 32.3755
1.30962 7.86253 31.9393
1.25206 7.86004 31.9244
1.19453 7.85752 31.9093
1.13705 7.85499 31.8941
1.07961 7.85244 31.8788
1.02221 7.84987 31.8633
0.907546 7.84468 31.8321
0.850282 7.84205 31.8162
1.84884 7.90371 32.3891
1.79038 7.9014 32.3753
1.66111 7.87711 32.2145
1.60298 7.87474 32.2003
1.25291 7.80189 31.9239
1.19538 7.79938 31.9088
1.1379 7.79686 31.8936
1.08047 7.79431 31.8783
1.02307 7.79175 31.8628
0.908418 7.78657 31.8315
0.851158 7.78396 31.8157
0.675473 7.76641 31.702
0.509756 7.73893 31.6244
0.344734 7.71141 31.5461
0.178433 7.71244 31.5597
0.00906889 7.70384 31.5073
-0.103562 7.69801 31.4717
-0.159791 7.69508 31.4537
-0.215963 7.69212 31.4356
-0.272076 7.68915 31.4174
-0.32813 7.68616 31.3991
-1.27037 7.67074 31.3319
1.97291 7.90829 32.6078
1.72009 7.82095 32.2284
1.66192 7.8186 32.2143
1.6038 7.81624 32.2
1.54571 7.81385 32.1857
1.49181 7.79203 32.1426
1.42655 7.75113 31.9682
1.31131 7.74622 31.9385
1.25375 7.74374 31.9235
1.19624 7.74124 31.9084
1.13876 7.73872 31.8932
1.08133 7.73619 31.8778
1.02394 7.73364 31.8623
-0.214972 7.63433 31.4346
-1.15836 7.61932 31.3709
1.97371 7.84921 32.6077
1.90141 7.82746 32.4599
1.85047 7.78623 32.3888
1.79201 7.78393 32.375
1.31216 7.68807 31.9381
1.2546 7.6856 31.9231
1.19709 7.68311 31.908
1.13962 7.6806 31.8927
1.08219 7.67807 31.8773
1.0248 7.67552 31.8618
0.910165 7.67038 31.8304
0.852914 7.66778 31.8145
1.79283 7.72519 32.3748
1.66356 7.70159 32.2139
1.60544 7.69924 32.1996
1.54736 7.69687 32.1852
1.19794 7.62497 31.9075
1.08305 7.61995 31.8768
1.02567 7.61741 31.8613
0.911039 7.61229 31.8299
0.853792 7.6097 31.814
0.673938 7.58329 31.6347
0.503606 7.57526 31.5851
0.333727 7.56707 31.5345
0.0119753 7.53034 31.5044
-0.100622 7.52459 31.4686
-0.156834 7.52169 31.4506
-0.212989 7.51877 31.4324
-0.274805 7.53503 31.4424
-0.33089 7.53208 31.424
-1.28046 7.53565 31.3849
-1.5017 7.5225 31.3021
1.72253 7.64542 32.2279
1.66438 7.64309 32.2137
1.60626 7.64074 32.1994
1.54818 7.63838 32.1849
1.48432 7.62668 32.1043
1.4249 7.5958 31.9953
1.31385 7.57178 31.9374
1.25631 7.56932 31.9223
1.1988 7.56685 31.9071
1.08391 7.56184 31.8764
1.02654 7.55931 31.8608
0.911914 7.5542 31.8293
-0.991599 7.41862 31.1647
1.90381 7.65093 32.4598
1.85291 7.61002 32.3885
1.79446 7.60774 32.3745
1.72334 7.58692 32.2277
1.66519 7.5846 32.2135
1.60708 7.58225 32.1992
1.25716 7.51119 31.9219
1.19965 7.50872 31.9067
1.08478 7.50373 31.8759
1.0274 7.50121 31.8603
0.675709 7.46763 31.6334
0.618891 7.46499 31.617
0.505404 7.45966 31.5837
1.79528 7.54901 32.3744
1.72416 7.52842 32.2276
1.66601 7.5261 32.2133
1.6079 7.52377 32.199
1.54983 7.52141 32.1845
1.4918 7.51904 32.1699
1.08564 7.44563 31.8754
1.02337 7.43418 31.7945
0.847325 7.4176 31.6815
0.676596 7.40981 31.6328
0.619782 7.40718 31.6164
0.506304 7.40187 31.5831
0.336469 7.39377 31.5322
0.279962 7.39104 31.515
0.167108 7.38553 31.4803
0.00387882 7.39499 31.5583
-0.108882 7.38931 31.5224
-0.165176 7.38644 31.5042
-0.221412 7.38356 31.486
-0.277588 7.38067 31.4676
-0.333704 7.37775 31.4491
-1.27712 7.36157 31.3806
-1.44309 7.35188 31.3185
1.66683 7.46761 32.2132
1.60873 7.46528 32.1988
1.55066 7.46293 32.1843
1.48679 7.45158 32.1036
1.4274 7.4212 31.9944
1.37398 7.3998 31.9513
1.3164 7.39738 31.9363
1.25886 7.39494 31.9211
1.20137 7.39249 31.9059
1.0865 7.38753 31.875
1.02424 7.37619 31.794
0.848199 7.35975 31.681
1.91294 7.48351 32.5268
1.85149 7.45301 32.417
1.79692 7.43157 32.3742
1.72579 7.41143 32.2273
1.66765 7.40912 32.213
1.60955 7.4068 32.1986
1.20222 7.33437 31.9055
1.08737 7.32943 31.8745
1.0251 7.31821 31.7935
0.849074 7.30191 31.6804
0.792125 7.29935 31.6643
0.678371 7.29417 31.6316
0.621566 7.29156 31.6151
0.508107 7.28629 31.5817
0.451453 7.28363 31.5648
0.3383 7.27827 31.5307
-0.275625 7.26499 31.4656
-0.33173 7.2621 31.4471
2.10405 7.49689 32.8285
2.04043 7.45681 32.6856
1.97932 7.43577 32.6077
1.92048 7.43355 32.594
1.78478 7.35522 32.2413
1.72661 7.35294 32.2271
1.66847 7.35064 32.2128
1.61037 7.34832 32.1984
1.55231 7.34598 32.1839
1.48845 7.33486 32.1031
1.02106 7.25163 31.7277
0.849949 7.24407 31.6799
0.793005 7.24152 31.6637
0.679259 7.23636 31.631
0.622459 7.23376 31.6145
0.509009 7.22851 31.5811
0.452359 7.22586 31.5642
0.339216 7.22052 31.53
0.282724 7.21782 31.5128
0.1699 7.21238 31.4779
0.00673998 7.22129 31.5556
-0.105988 7.21568 31.5196
-0.162265 7.21286 31.5014
-0.274643 7.20716 31.4646
-0.330742 7.20428 31.4461
-1.27399 7.17891 31.3103
-1.32936 7.16711 31.2236
2.039 7.37892 32.6214
1.98013 7.37672 32.6077
1.91454 7.36563 32.5268
1.66929 7.29215 32.2127
1.6112 7.28984 32.1982
1.55314 7.28751 32.1837
1.48927 7.27651 32.1029
1.42568 7.26549 32.022
1.37224 7.24425 31.9786
1.31895 7.223 31.9352
1.26142 7.22059 31.92
1.20394 7.21816 31.9047
1.02684 7.20227 31.7926
0.850825 7.18623 31.6794
0.793885 7.18369 31.6632
1.98093 7.31767 32.6078
1.91535 7.3067 32.5268
1.85003 7.29571 32.4457
1.79938 7.25542 32.3738
1.72824 7.23596 32.2269
1.67011 7.23367 32.2125
1.61202 7.23137 32.1981
1.55397 7.22905 32.1835
1.0277 7.1443 31.7921
0.851701 7.1284 31.6788
0.794765 7.12587 31.6626
0.681037 7.12075 31.6298
0.624246 7.11817 31.6133
0.510814 7.11297 31.5797
0.454174 7.11034 31.5628
0.341051 7.10504 31.5286
0.284568 7.10236 31.5113
0.171765 7.09697 31.4763
0.00865021 7.10551 31.5539
-0.160322 7.09716 31.4995
-0.272677 7.09151 31.4627
-0.330907 7.0803 31.3786
-1.27177 7.06315 31.3075
-1.32712 7.05162 31.2207
2.10643 7.31872 32.8289
2.04765 7.2695 32.6889
1.98174 7.25861 32.6078
1.72906 7.17748 32.2268
1.67093 7.1752 32.2124
1.61285 7.1729 32.1979
1.55479 7.17058 32.1833
1.49093 7.15981 32.1024
1.42734 7.14902 32.0215
0.852578 7.07057 31.6783
0.795646 7.06805 31.6621
0.681927 7.06296 31.6292
0.62514 7.06039 31.6126
0.511718 7.0552 31.5791
0.455083 7.05258 31.5621
0.398499 7.04995 31.545
0.341969 7.0473 31.5278
0.285491 7.04464 31.5105
0.172698 7.03927 31.4755
0.00676444 7.03937 31.4876
-0.15935 7.03932 31.4986
-0.271693 7.0337 31.4617
-0.329921 7.02261 31.3776
-1.27065 7.00529 31.3061
-1.32601 6.99388 31.2193
1.98254 7.19957 32.6078
1.91696 7.18883 32.5268
1.55562 7.11212 32.1831
1.49176 7.10146 32.1022
1.42817 7.09079 32.0212
1.37047 7.08844 32.0062
1.31281 7.08606 31.9911
1.25959 7.06497 31.9473
1.20651 7.04386 31.9035
1.02944 7.02837 31.7912
0.853455 7.01275 31.6778
0.796527 7.01023 31.6616
0.682817 7.00516 31.6287
0.626035 7.0026 31.612
0.512622 6.99744 31.5784
0.455991 6.99483 31.5615
-0.158377 6.98148 31.4977
-0.270708 6.97589 31.4607
-0.326784 6.97307 31.4421
-1.00377 7.01699 31.5974
-1.26978 6.93924 31.2386
1.91776 7.1299 32.5269
1.85244 7.11926 32.4457
1.79535 7.07104 32.3072
1.7307 7.06052 32.2265
1.67258 7.05825 32.2121
1.55645 7.05366 32.1829
1.03031 6.97041 31.7908
0.854332 6.95493 31.6773
0.797409 6.95242 31.661
0.740534 6.9499 31.6446
0.683707 6.94737 31.6281
0.62693 6.94482 31.6115
0.570203 6.94226 31.5947
0.513526 6.93968 31.5778
0.456901 6.93708 31.5608
0.400327 6.93448 31.5437
0.343806 6.93185 31.5264
0.287338 6.92921 31.5091
0.174565 6.92389 31.474
0.00867066 6.92384 31.4859
-0.157403 6.92366 31.4967
-0.269723 6.91809 31.4598
-0.327947 6.90725 31.3757
-1.26843 6.88958 31.3033
-1.32377 6.87843 31.2165
-1.3788 6.87535 31.1956
2.1088 7.14057 32.8293
2.04301 7.08365 32.6217
1.98415 7.08148 32.6079
1.91181 7.06266 32.4597
1.73152 7.00204 32.2264
1.6734 6.99978 32.212
1.48756 6.97667 32.0358
1.42982 6.97434 32.0208
1.37213 6.972 32.0057
0.798291 6.89462 31.6605
0.741421 6.89211 31.6441
0.684598 6.88958 31.6275
0.627826 6.88705 31.6109
0.571103 6.88449 31.5941
0.514431 6.88193 31.5772
0.45781 6.87934 31.5601
0.401241 6.87674 31.543
0.344725 6.87413 31.5257
0.288263 6.87151 31.5083
0.1755 6.86621 31.4732
0.119201 6.86354 31.4555
0.00677242 6.85815 31.4196
-0.156429 6.86583 31.4958
-0.268738 6.86029 31.4588
-0.324802 6.8575 31.4401
-1.00164 6.90046 31.595
-1.05821 6.88933 31.5078
-1.32265 6.82072 31.2151
-1.37768 6.81766 31.1942
2.04381 7.02461 32.6218
1.98495 7.02243 32.608
1.91261 7.00385 32.4598
1.48838 6.91844 32.0356
1.43065 6.91612 32.0206
1.37297 6.91379 32.0055
1.31532 6.91144 31.9903
1.25771 6.90908 31.9749
1.20462 6.88814 31.9309
1.03204 6.85451 31.7899
0.970059 6.84422 31.7086
0.856088 6.8393 31.6763
0.799174 6.83681 31.66
0.742307 6.83432 31.6435
0.68549 6.8318 31.627
0.628722 6.82927 31.6103
0.572003 6.82673 31.5935
0.515336 6.82418 31.5765
0.45872 6.8216 31.5595
0.402156 6.81902 31.5423
0.345645 6.81642 31.525
0.289187 6.8138 31.5076
0.120141 6.80587 31.4547
-0.155455 6.80801 31.4949
-0.267752 6.8025 31.4578
-0.325971 6.79191 31.3737
-1.00057 6.84221 31.5937
-1.37655 6.75997 31.1927
-1.43149 6.75691 31.1717
1.91341 6.94504 32.4598
1.85486 6.94283 32.4457
1.78987 6.93258 32.3647
1.73316 6.8851 32.2262
1.67505 6.88285 32.2118
1.48921 6.86022 32.0354
0.856967 6.78149 31.6758
0.800057 6.77902 31.6595
0.743195 6.77653 31.643
0.686382 6.77402 31.6264
0.629618 6.77151 31.6097
0.572904 6.76898 31.5929
0.516242 6.76643 31.5759
0.45963 6.76387 31.5588
0.403071 6.7613 31.5416
0.346565 6.75871 31.5243
0.290112 6.7561 31.5069
0.17737 6.75086 31.4717
0.121082 6.74821 31.4539
0.00867449 6.74288 31.418
-0.15448 6.7502 31.494
-0.266766 6.74472 31.4569
-0.998705 6.79188 31.6594
-1.05607 6.77309 31.5053
-1.37542 6.70229 31.1913
-1.43036 6.69925 31.1703
2.11118 6.96243 32.8298
2.04542 6.90652 32.6219
1.98657 6.90435 32.6081
1.67587 6.82438 32.2117
1.49004 6.802 32.0352
1.43232 6.79969 32.0202
1.37463 6.79737 32.005
1.31699 6.79504 31.9898
0.744082 6.71874 31.6425
0.687274 6.71625 31.6259
0.630515 6.71374 31.6091
0.573806 6.71122 31.5923
0.517148 6.70869 31.5753
0.460541 6.70614 31.5582
0.403987 6.70358 31.541
0.347486 6.701 31.5237
0.291038 6.69841 31.5062
0.178306 6.69319 31.4709
0.00962615 6.68525 31.4171
-0.153505 6.69239 31.4931
-0.265779 6.68694 31.456
-0.998433 6.72573 31.5913
-1.055 6.71499 31.5041
-1.37429 6.64462 31.1899
-1.42922 6.6416 31.1688
1.98737 6.84532 32.6082
1.91502 6.82741 32.4599
1.85647 6.82523 32.4458
1.49087 6.74378 32.0351
1.43315 6.74148 32.02
1.37547 6.73917 32.0048
1.31783 6.73684 31.9895
1.26024 6.7345 31.9741
1.19745 6.72452 31.8928
1.02971 6.67316 31.7233
0.97267 6.67075 31.7073
0.915674 6.66832 31.6912
0.858725 6.66588 31.6749
0.801823 6.66343 31.6585
0.74497 6.66096 31.642
0.688166 6.65848 31.6253
0.631411 6.65599 31.6086
0.574707 6.65348 31.5917
0.518054 6.65095 31.5747
0.461452 6.64842 31.5576
0.404903 6.64587 31.5403
0.348407 6.6433 31.523
0.291964 6.64072 31.5055
0.179242 6.63552 31.4702
0.122964 6.6329 31.4524
0.0105782 6.62762 31.4163
-0.152529 6.63459 31.4922
-0.264792 6.62916 31.455
-0.325176 6.61146 31.3054
-0.997365 6.6675 31.5901
-1.37317 6.58695 31.1885
-1.42809 6.58395 31.1674
-1.48293 6.58094 31.1462
1.91582 6.76861 32.46
1.85727 6.76642 32.4458
1.79229 6.75651 32.3647
1.73562 6.7097 32.226
1.67752 6.70747 32.2115
1.49169 6.68556 32.0349
0.916549 6.61051 31.6907
0.859604 6.60808 31.6744
0.802707 6.60564 31.658
0.745858 6.60319 31.6414
0.689059 6.60071 31.6248
0.632309 6.59823 31.608
0.575609 6.59573 31.5911
0.51896 6.59322 31.5741
0.462364 6.5907 31.5569
0.405819 6.58816 31.5397
0.349328 6.5856 31.5223
0.29289 6.58304 31.5048
0.180178 6.57786 31.4694
0.123906 6.57526 31.4516
0.0115306 6.57 31.4155
-0.263805 6.57139 31.4541
-0.996296 6.60927 31.5889
-1.31705 6.53226 31.2081
-1.37204 6.52929 31.1871
2.11355 6.78431 32.8304
2.04783 6.7294 32.6223
1.98898 6.72725 32.6084
1.91662 6.7098 32.46
1.49252 6.62734 32.0347
1.43481 6.62506 32.0196
1.37714 6.62277 32.0044
1.26192 6.61814 31.9736
1.20438 6.6158 31.958
0.406736 6.53045 31.539
-0.995226 6.55105 31.5877
-1.37091 6.47164 31.1857
1.98979 6.66822 32.6085
1.91743 6.651 32.4601
1.85889 6.64883 32.4459
1.80038 6.64664 32.4316
1.49335 6.56913 32.0346
1.43564 6.56686 32.0195
1.37797 6.56457 32.0042
1.26277 6.55996 31.9734
1.19998 6.55033 31.892
1.02769 6.51783 31.7504
0.975284 6.4973 31.7061
0.9183 6.49491 31.6898
0.861364 6.4925 31.6735
0.804475 6.49008 31.657
0.747635 6.48764 31.6404
0.690845 6.48519 31.6237
0.634104 6.48273 31.6069
0.577413 6.48026 31.59
0.520774 6.47777 31.5729
0.464187 6.47527 31.5557
0.407652 6.47275 31.5384
0.351171 6.47022 31.521
0.294743 6.46768 31.5034
0.23837 6.46513 31.4858
0.182052 6.46256 31.468
0.12579 6.45998 31.4501
0.0134364 6.45478 31.4139
-0.154659 6.44688 31.3588
-0.261829 6.45587 31.4522
-0.322216 6.43887 31.3026
-0.993341 6.50019 31.6534
-1.25976 6.41985 31.2263
-1.31481 6.41693 31.2054
-1.36978 6.414 31.1843
1.91823 6.59219 32.4602
1.85969 6.59003 32.446
1.79471 6.58047 32.3648
1.72999 6.5709 32.2834
1.67999 6.53211 32.2112
1.49418 6.51092 32.0344
1.43647 6.50866 32.0193
1.37881 6.50638 32.004
0.748524 6.42988 31.6399
0.691738 6.42744 31.6232
0.635002 6.42499 31.6064
0.578316 6.42253 31.5894
0.521682 6.42005 31.5723
0.465099 6.41756 31.5551
0.408569 6.41506 31.5378
0.352093 6.41254 31.5203
0.29567 6.41001 31.5027
0.239302 6.40747 31.4851
0.18299 6.40491 31.4672
0.126733 6.40235 31.4493
0.0143897 6.39717 31.4131
-0.148625 6.40343 31.4887
-0.993086 6.43463 31.5854
-1.17347 6.47017 31.6488
-1.36865 6.35636 31.1829
2.11593 6.6062 32.8311
1.9914 6.55016 32.6087
1.91904 6.53339 32.4603
1.49501 6.45272 32.0343
1.4373 6.45046 32.0191
1.37964 6.44819 32.0039
1.26445 6.44361 31.9729
-0.991193 6.38356 31.651
1.91984 6.47459 32.4604
1.86131 6.47244 32.4461
1.79632 6.46312 32.3649
1.43814 6.39226 32.019
1.38048 6.39 32.0037
1.26529 6.38544 31.9727
1.20251 6.37617 31.8912
1.02562 6.36222 31.7776
0.968506 6.35987 31.7614
0.916181 6.33952 31.7169
0.859208 6.33714 31.7004
0.802282 6.33475 31.6839
0.750303 6.31436 31.639
0.693525 6.31194 31.6222
0.636798 6.30952 31.6053
0.580122 6.30707 31.5883
0.523497 6.30462 31.5711
0.466924 6.30216 31.5539
0.410404 6.29968 31.5365
0.353937 6.29719 31.519
0.297525 6.29468 31.5014
0.241167 6.29217 31.4837
0.184865 6.28964 31.4658
0.128619 6.2871 31.4478
0.0162971 6.28198 31.4116
-0.0397768 6.2794 31.3932
-0.151748 6.27421 31.3562
-0.264717 6.3007 31.478
-1.17132 6.35345 31.6464
-1.36639 6.24111 31.1802
1.92064 6.4158 32.4605
1.86211 6.41365 32.4462
1.79713 6.40444 32.3649
1.73648 6.37709 32.2546
1.68246 6.35677 32.2111
1.61217 6.34075 32.0641
1.5544 6.33854 32.0491
1.49666 6.33631 32.0341
1.43897 6.33407 32.0188
1.38132 6.33182 32.0035
0.467837 6.24446 31.5533
0.411322 6.24199 31.5359
0.35486 6.23952 31.5184
0.298453 6.23702 31.5007
0.2421 6.23452 31.483
0.185803 6.23201 31.4651
0.129562 6.22948 31.4471
-0.989874 6.26005 31.5819
-1.17025 6.29509 31.6452
-1.22608 6.29225 31.6243
-1.36528 6.17679 31.1132
2.11114 6.42098 32.7638
2.045 6.41176 32.6819
1.99382 6.37308 32.6091
1.92145 6.357 32.4606
1.86292 6.35486 32.4463
1.613 6.28253 32.064
1.49749 6.27811 32.0339
1.4398 6.27588 32.0187
1.38215 6.27364 32.0033
1.2042 6.26007 31.8908
1.14169 6.25102 31.8091
1.02733 6.2464 31.777
1.92225 6.29821 32.4607
1.86373 6.29607 32.4464
1.79225 6.28027 32.2982
1.44063 6.21769 32.0186
1.38299 6.21546 32.0032
1.19978 6.19538 31.8247
1.14253 6.1931 31.8089
1.02818 6.1885 31.7767
0.971077 6.18618 31.7605
0.914018 6.18384 31.7441
0.861826 6.16367 31.6992
0.804914 6.16131 31.6826
0.752971 6.14111 31.6376
0.639494 6.13633 31.6038
0.582832 6.13393 31.5867
0.469663 6.12908 31.5521
0.413157 6.12664 31.5347
0.300308 6.12172 31.4994
0.243966 6.11924 31.4816
0.187679 6.11676 31.4637
0.131449 6.11426 31.4457
0.0191598 6.10922 31.4092
-0.0368975 6.10668 31.3909
-1.1681 6.1784 31.6429
-1.22391 6.17559 31.6219
-1.36303 6.0618 31.1105
2.17914 6.31143 32.8461
2.1199 6.30937 32.8323
1.92306 6.23941 32.4608
1.86454 6.23729 32.4465
1.79305 6.22172 32.2983
1.73484 6.21957 32.2836
1.67459 6.19275 32.1734
1.61464 6.16611 32.0639
1.55688 6.16392 32.0489
1.49915 6.16172 32.0337
1.44147 6.1595 32.0185
1.38382 6.15728 32.0031
-0.993258 6.10357 31.6074
-1.16702 6.12007 31.6417
-1.36194 5.99795 31.0436
2.10633 6.23644 32.6966
2.04737 6.23436 32.6826
1.92386 6.18062 32.461
1.86534 6.1785 32.4466
1.5577 6.10572 32.0488
1.49998 6.10352 32.0336
1.4423 6.10132 32.0183
1.38466 6.0991 32.0029
1.20146 6.07952 31.8243
1.14422 6.07726 31.8084
1.02989 6.07269 31.7761
-1.16594 6.06174 31.6406
1.92466 6.12183 32.4611
1.86615 6.11972 32.4467
1.79466 6.1046 32.2984
1.3855 6.04093 32.0028
1.2023 6.02159 31.8241
1.14507 6.01934 31.8082
1.03074 6.0148 31.7759
0.973649 6.01251 31.7596
0.916602 6.01021 31.7431
0.859603 6.0079 31.7265
0.802653 6.00558 31.7099
0.745751 6.00324 31.693
0.637145 5.98086 31.6307
0.580447 5.97849 31.6135
0.467206 5.97372 31.5788
0.410665 5.97131 31.5613
0.297746 5.96647 31.5259
0.246766 5.94636 31.4797
0.128784 5.95913 31.4719
0.0725767 5.95666 31.4537
0.0108313 5.97184 31.4636
-0.0453088 5.96935 31.4451
-0.15741 5.96432 31.4078
-0.269269 5.95926 31.37
-1.35964 5.88937 31.1065
-1.42123 5.89816 31.0479
2.18151 6.13333 32.847
1.86696 6.06094 32.4468
1.79547 6.04605 32.2985
1.73726 6.04392 32.2838
1.68741 6.00615 32.211
1.61711 5.99148 32.0638
1.55935 5.98932 32.0487
1.50164 5.98715 32.0335
1.44396 5.98496 32.0181
1.38633 5.98276 32.0027
1.20314 5.96367 31.8239
1.14592 5.96143 31.8079
-0.992048 5.93704 31.6363
-1.16379 5.9451 31.6383
2.38394 6.14256 33.2232
2.30874 6.12732 33.0715
2.1087 6.05903 32.6974
2.04975 6.05697 32.6834
1.98482 6.00634 32.4757
1.92627 6.00426 32.4614
1.86776 6.00216 32.4469
1.56018 5.93113 32.0487
1.50247 5.92896 32.0334
1.4448 5.92678 32.018
1.38717 5.92459 32.0025
1.20399 5.90575 31.8237
1.14676 5.90352 31.8077
1.08958 5.90127 31.7916
1.03245 5.89902 31.7753
0.975364 5.89675 31.759
0.918325 5.89447 31.7425
0.861335 5.89218 31.7259
-0.267337 5.84408 31.3684
2.30952 6.06761 33.0719
2.24234 6.01663 32.8614
2.18309 6.0146 32.8477
1.92708 5.94547 32.4616
1.86857 5.94338 32.4471
1.79708 5.92895 32.2987
1.73888 5.92684 32.284
1.388 5.86642 32.0024
1.20483 5.84783 31.8235
1.14761 5.84561 31.8075
1.09043 5.84337 31.7914
1.0333 5.84113 31.7751
0.976221 5.83887 31.7587
0.919187 5.8366 31.7422
0.805263 5.83204 31.7088
0.748375 5.82974 31.6919
0.63475 5.8251 31.6578
0.578015 5.82277 31.6406
0.464702 5.81807 31.6057
0.408125 5.81571 31.5881
0.295135 5.81095 31.5526
0.238723 5.80855 31.5346
0.126069 5.80372 31.4983
0.0698281 5.80129 31.48
0.0136453 5.79885 31.4616
-0.0424785 5.7964 31.443
-0.154547 5.79147 31.4056
-0.266371 5.78649 31.3676
-1.36324 5.72873 31.0655
-1.42483 5.74356 31.0724
2.3855 6.02267 33.2242
2.18388 5.95523 32.848
2.11028 5.94076 32.698
1.79788 5.8704 32.2989
1.73968 5.86829 32.2841
1.6753 5.86016 32.2026
1.61538 5.83445 32.0924
1.56183 5.81474 32.0486
1.50413 5.81259 32.0333
1.44646 5.81043 32.0179
1.38321 5.80237 31.9366
1.20567 5.78991 31.8234
1.14845 5.7877 31.8073
1.09128 5.78548 31.7911
-0.994402 5.76619 31.5631
2.38628 5.96273 33.2247
2.11107 5.88162 32.6984
1.98722 5.82996 32.4763
1.92869 5.8279 32.4619
1.87019 5.82583 32.4474
1.44729 5.75226 32.0178
1.38405 5.74432 31.9365
1.20651 5.732 31.8232
1.1493 5.7298 31.8071
1.09213 5.72758 31.7909
1.03501 5.72536 31.7746
0.977937 5.72313 31.7582
0.92091 5.72088 31.7416
0.750124 5.71408 31.6912
-0.152637 5.67626 31.4041
-0.264438 5.67134 31.3661
2.31185 5.88847 33.0733
2.24471 5.83852 32.8626
2.18547 5.83651 32.8487
1.87099 5.76705 32.4476
1.79949 5.7533 32.2991
1.7413 5.75122 32.2843
1.68315 5.74912 32.2693
1.20735 5.67409 31.823
1.15014 5.6719 31.8069
1.09298 5.66969 31.7907
1.03586 5.66748 31.7744
0.978794 5.66526 31.7579
0.921772 5.66302 31.7413
0.807874 5.65853 31.7078
0.750999 5.65626 31.6909
0.580679 5.64941 31.6393
0.467394 5.64479 31.6043
0.410832 5.64246 31.5866
0.241475 5.63543 31.5329
0.128852 5.63068 31.4965
0.0726268 5.6283 31.4781
0.0164602 5.6259 31.4596
-0.0396472 5.6235 31.441
-0.151682 5.61866 31.4034
-0.263472 5.61378 31.3653
-0.992303 5.64995 31.5611
-1.36684 5.57398 31.0902
-1.42149 5.57133 31.0686
-1.47606 5.56867 31.047
-1.6405 5.57177 31.1131
2.44777 5.84481 33.2391
2.38785 5.84284 33.2257
2.2455 5.77915 32.863
2.18626 5.77714 32.8491
2.11264 5.76335 32.699
1.80029 5.69476 32.2993
1.74211 5.69268 32.2844
1.67773 5.6849 32.2029
1.61783 5.6597 32.0925
1.56431 5.64018 32.0486
1.50661 5.63806 32.0332
1.44896 5.63593 32.0177
1.38571 5.62822 31.9363
1.2082 5.61618 31.8229
1.15099 5.614 31.8068
1.09383 5.61181 31.7905
1.03672 5.6096 31.7742
0.979652 5.60739 31.7577
-0.150727 5.56106 31.4027
-0.262505 5.55621 31.3645
-0.991253 5.59184 31.5601
2.38863 5.7829 33.2262
2.31341 5.76905 33.0742
2.11343 5.70422 32.6994
1.98963 5.6536 32.477
1.9311 5.65156 32.4625
1.8011 5.63621 32.2994
1.44979 5.57776 32.0177
1.38655 5.57017 31.9362
1.20904 5.55827 31.8228
1.15184 5.5561 31.8066
1.09468 5.55392 31.7903
1.03757 5.55173 31.774
0.980509 5.54953 31.7574
0.923495 5.54732 31.7408
0.809614 5.54287 31.7072
0.752748 5.54063 31.6902
0.582455 5.53385 31.6385
0.412637 5.52698 31.5857
0.24331 5.52003 31.5318
0.130707 5.51535 31.4953
0.0744928 5.51299 31.4769
0.018337 5.51062 31.4583
-0.0377595 5.50825 31.4397
-0.149772 5.50347 31.402
-0.261539 5.49865 31.3638
-0.990203 5.53374 31.559
-1.41926 5.45654 31.0661
-1.47382 5.45393 31.0444
-1.63819 5.4567 31.1104
2.31419 5.70934 33.0747
2.24708 5.66041 32.8638
2.17319 5.64709 32.7138
1.8019 5.57767 32.2996
1.74372 5.57561 32.2847
1.67934 5.56807 32.2031
1.26712 5.50252 31.8387
1.20988 5.50037 31.8226
1.15268 5.49821 31.8065
1.09553 5.49604 31.7902
1.03842 5.49386 31.7738
0.981367 5.49167 31.7572
0.924357 5.48947 31.7406
0.810484 5.48504 31.7069
0.749298 5.47752 31.6244
0.579364 5.47079 31.5726
0.409905 5.46397 31.5198
0.244227 5.46234 31.5313
0.131635 5.45768 31.4947
0.0754258 5.45534 31.4763
0.0192754 5.45299 31.4577
-0.0368156 5.45063 31.439
-0.148817 5.44588 31.4013
-0.260572 5.4411 31.363
-0.989153 5.47564 31.558
-1.41112 5.38194 31.0363
-1.4727 5.39656 31.0432
-1.52717 5.39396 31.0213
-2.03754 5.43648 31.275
2.51914 5.71424 33.4548
2.39019 5.66301 33.2273
2.17397 5.58795 32.7142
2.11501 5.58596 32.7001
1.80271 5.51913 32.2998
1.74453 5.51708 32.2848
1.68015 5.50965 32.2032
1.61604 5.50222 32.1215
1.5625 5.48289 32.0774
1.50043 5.49805 32.0907
1.38821 5.45409 31.9361
1.32524 5.44673 31.8545
1.26796 5.4446 31.8386
1.21072 5.44246 31.8225
1.15353 5.44032 31.8063
1.09638 5.43816 31.79
1.03928 5.43599 31.7736
0.982224 5.43381 31.757
0.925218 5.43162 31.7403
0.811354 5.42722 31.7066
0.0763587 5.3977 31.4757
0.0202137 5.39536 31.4571
-0.0358718 5.39302 31.4384
-0.147862 5.3883 31.4006
-0.259606 5.38355 31.3623
-0.988103 5.41754 31.557
-1.52604 5.33662 31.02
2.38318 5.59747 33.1586
2.17476 5.52882 32.7146
2.11579 5.52683 32.7004
1.99203 5.47724 32.4778
1.93351 5.47522 32.4632
1.80351 5.46059 32.2999
1.38905 5.39605 31.9361
1.32608 5.38881 31.8544
1.2688 5.38669 31.8385
1.21156 5.38456 31.8224
1.15437 5.38243 31.8062
1.09723 5.38028 31.7898
1.04013 5.37812 31.7734
0.983081 5.37596 31.7568
0.92608 5.37378 31.7401
0.751042 5.36213 31.6238
0.581135 5.35547 31.5719
0.415343 5.35379 31.5843
0.246061 5.34696 31.5303
0.13349 5.34237 31.4936
0.0772916 5.34006 31.4751
0.021152 5.33774 31.4565
-0.034928 5.33541 31.4377
-0.0909478 5.33307 31.4189
-0.146907 5.33072 31.3999
-0.258639 5.326 31.3616
-0.987053 5.35946 31.556
-1.15301 5.36228 31.6272
-1.3897 5.39751 31.7357
-1.47045 5.28185 31.0406
-1.52491 5.27929 31.0188
2.37617 5.53216 33.09
2.31652 5.53021 33.0763
2.24944 5.4823 32.8651
2.17554 5.46968 32.715
2.11658 5.4677 32.7008
1.86253 5.40408 32.315
1.80432 5.40205 32.3001
1.74614 5.40001 32.2852
1.68177 5.39283 32.2035
1.15522 5.32454 31.806
1.09808 5.3224 31.7897
1.04098 5.32026 31.7732
0.983939 5.3181 31.7566
0.926941 5.31594 31.7399
0.751913 5.30443 31.6235
0.586007 5.30277 31.637
0.416245 5.29607 31.5839
0.246978 5.28928 31.5297
0.134418 5.28472 31.4931
0.0782244 5.28242 31.4745
0.0220902 5.28012 31.4559
-0.0339843 5.2778 31.4371
-0.0899985 5.27548 31.4182
-0.145952 5.27315 31.3992
-0.986003 5.30137 31.555
-1.38853 5.33383 31.6666
-1.46933 5.22451 31.0394
2.45244 5.48511 33.2425
2.39253 5.48318 33.229
2.17633 5.41054 32.7154
2.11737 5.40857 32.7012
1.86333 5.34553 32.3152
1.80512 5.34351 32.3003
1.74695 5.34148 32.2853
1.68257 5.33442 32.2036
1.61847 5.32734 32.1218
1.56495 5.3082 32.0776
1.39071 5.27997 31.936
1.32775 5.27297 31.8543
1.27047 5.27088 31.8383
1.21324 5.26877 31.8222
1.15606 5.26665 31.8059
1.09893 5.26453 31.7895
1.04184 5.2624 31.773
0.984795 5.26025 31.7564
0.927802 5.2581 31.7396
0.752785 5.24674 31.6232
0.586894 5.24501 31.6366
0.417147 5.23835 31.5835
0.247895 5.23161 31.5292
0.135345 5.22707 31.4925
0.0791572 5.22479 31.474
0.0230284 5.2225 31.4553
-0.0330407 5.2202 31.4365
-0.0890493 5.2179 31.4176
-0.144997 5.21558 31.3986
-0.256706 5.21093 31.3602
-0.929201 5.24576 31.5749
-1.38751 5.2805 31.7335
-1.46821 5.16717 31.0382
2.38552 5.41798 33.1603
2.11816 5.34944 32.7016
2.04516 5.33732 32.5518
1.99047 5.31812 32.508
1.86413 5.28699 32.3154
1.80592 5.28498 32.3005
1.74776 5.28295 32.2855
1.38589 5.21714 31.8702
1.32858 5.21506 31.8543
1.27131 5.21297 31.8382
1.21409 5.21088 31.8221
1.15691 5.20877 31.8058
1.09977 5.20666 31.7894
0.985652 5.20241 31.7562
0.928663 5.20027 31.7394
0.753656 5.18905 31.6229
0.58379 5.18251 31.5708
0.474572 5.18285 31.6009
0.418049 5.18063 31.5831
0.248812 5.17393 31.5288
0.136272 5.16943 31.492
0.0800897 5.16716 31.4734
0.0239664 5.16489 31.4547
-0.0320971 5.16261 31.4359
-0.0881002 5.16032 31.4169
-0.144042 5.15802 31.3979
-0.199922 5.15571 31.3787
-0.25574 5.1534 31.3594
-0.928159 5.18767 31.574
-0.983904 5.18523 31.5531
-1.16357 5.2221 31.6829
-1.21936 5.21962 31.6615
-1.46709 5.10984 31.0369
2.37849 5.35301 33.0917
2.30363 5.34086 32.9401
2.2518 5.3042 32.8664
2.1779 5.29227 32.7162
1.86493 5.22844 32.3157
1.80673 5.22644 32.3008
1.74856 5.22443 32.2857
1.67794 5.21279 32.1374
1.62008 5.21076 32.1221
1.10062 5.14879 31.7893
0.929524 5.14243 31.7392
0.750189 5.12672 31.5571
0.584675 5.12486 31.5704
0.41895 5.12292 31.5826
0.249729 5.11626 31.5283
0.137199 5.11179 31.4914
0.0810222 5.10954 31.4728
-0.0311538 5.10501 31.4353
-0.0871512 5.10274 31.4163
-0.927116 5.12958 31.573
-0.982854 5.12716 31.5521
-1.38532 5.16352 31.7313
-1.46597 5.05252 31.0357
-1.52039 5.05005 31.0137
2.17868 5.23313 32.7167
2.11973 5.23118 32.7024
1.80753 5.1679 32.301
1.74937 5.1659 32.2859
1.67874 5.15449 32.1375
1.62089 5.15247 32.1222
1.56308 5.15045 32.1067
1.38755 5.10129 31.8702
1.33025 5.09924 31.8542
1.27298 5.09717 31.8381
1.21577 5.0951 31.8219
1.1586 5.09301 31.8056
1.10147 5.09092 31.7891
0.925699 5.08007 31.6736
0.751057 5.06915 31.5569
0.585559 5.06722 31.5701
0.4162 5.06069 31.5167
0.250645 5.0586 31.5278
0.138126 5.05415 31.4909
0.0819545 5.05192 31.4723
-0.0302105 5.04742 31.4347
-0.0862024 5.04517 31.4157
-0.142133 5.0429 31.3966
-0.198001 5.04063 31.3774
-0.253807 5.03835 31.3581
-1.16145 5.10542 31.6809
-1.21723 5.10298 31.6594
-1.38423 5.10504 31.7302
-1.51926 4.99275 31.0125
2.17947 5.174 32.7171
2.12052 5.17205 32.7028
2.04751 5.16063 32.553
1.98887 5.15867 32.5384
1.86653 5.11135 32.3162
1.80833 5.10937 32.3012
1.75017 5.10738 32.2861
1.33108 5.04133 31.8542
1.27382 5.03927 31.8381
1.21661 5.03721 31.8219
1.15944 5.03514 31.8055
1.10232 5.03306 31.789
0.926557 5.02235 31.6734
0.751926 5.01158 31.5566
0.586444 5.00958 31.5698
0.417099 5.00309 31.5163
0.251561 5.00093 31.5273
0.139053 4.99652 31.4904
0.0828866 4.9943 31.4717
-0.0292675 4.98984 31.4341
-0.0852537 4.9876 31.4151
-0.141179 4.98535 31.396
-0.197041 4.98309 31.3767
-0.925031 5.01343 31.5712
-0.980756 5.01105 31.5502
-1.16039 5.04709 31.68
-1.21616 5.04467 31.6584
-1.51813 4.93546 31.0113
2.38082 5.17386 33.0935
2.30595 5.16241 32.9418
2.2467 5.12145 32.7998
2.18025 5.11486 32.7176
2.1213 5.11293 32.7033
1.86733 5.05281 32.3165
1.80914 5.05084 32.3015
1.75098 5.04885 32.2863
1.68035 5.0379 32.1379
1.62251 5.0359 32.1225
0.927415 4.96463 31.6732
0.752794 4.95401 31.5564
0.583326 4.94764 31.5039
0.41434 4.9412 31.4505
0.252478 4.94327 31.5269
0.13998 4.93889 31.4899
-1.2151 4.98636 31.6575
-1.38204 4.98809 31.7281
2.52606 5.17155 33.4611
2.18103 5.05573 32.718
2.12209 5.0538 32.7037
1.75179 4.99033 32.2866
1.68116 4.97961 32.1381
1.62331 4.97762 32.1227
1.56551 4.97562 32.1072
1.39004 4.92754 31.8702
1.33274 4.92551 31.8542
1.27549 4.92348 31.838
1.21829 4.92144 31.8218
1.16113 4.91939 31.8054
1.10402 4.91734 31.7888
0.928272 4.90692 31.673
0.753662 4.89644 31.5561
0.584208 4.89011 31.5036
0.415236 4.88372 31.4501
0.140906 4.88127 31.4894
0.0847501 4.87908 31.4707
-0.027382 4.87468 31.433
-0.083357 4.87247 31.4139
-0.13927 4.87026 31.3947
-0.195122 4.86804 31.3754
-0.25091 4.86581 31.356
-1.15828 4.93045 31.678
-1.21403 4.92806 31.6565
-1.51587 4.8209 31.0088
-1.62442 4.81611 30.9644
2.38237 5.05442 33.0947
2.12287 4.99467 32.7042
2.04987 4.98394 32.5542
1.99123 4.982 32.5396
1.92716 4.93768 32.3319
1.86893 4.93573 32.317
1.81074 4.93377 32.302
1.75259 4.93181 32.2868
1.68196 4.92131 32.1383
1.27633 4.86559 31.838
1.21913 4.86356 31.8217
1.16197 4.86152 31.8053
1.10486 4.85948 31.7887
0.929129 4.8492 31.6729
0.75453 4.83888 31.5559
0.697997 4.83679 31.5385
0.585089 4.83259 31.5033
0.416132 4.82624 31.4497
0.359923 4.82411 31.4316
0.247675 4.81982 31.395
0.0856816 4.82147 31.4702
-0.0264395 4.81711 31.4324
-0.082409 4.81492 31.4133
-0.194162 4.81051 31.3748
-0.921906 4.83924 31.5685
-0.984329 4.85379 31.5766
-1.21297 4.86977 31.6555
-1.51474 4.76363 31.0076
2.38314 4.9947 33.0953
2.30826 4.98395 32.9436
2.24905 4.94368 32.8014
2.1826 4.93745 32.719
2.12366 4.93554 32.7046
1.86973 4.87719 32.3173
1.81154 4.87524 32.3023
1.7534 4.87328 32.2871
1.68276 4.86302 32.1385
1.62493 4.86105 32.1231
1.56713 4.85908 32.1075
0.92529 4.7875 31.6072
0.755397 4.78131 31.5557
0.698869 4.77924 31.5382
0.58597 4.77507 31.503
0.529601 4.77297 31.4852
0.417027 4.76876 31.4493
0.360824 4.76664 31.4312
-1.2119 4.81148 31.6545
2.18338 4.87832 32.7195
2.11727 4.87223 32.6374
1.7542 4.81476 32.2873
1.68357 4.80473 32.1387
1.62573 4.80277 32.1233
1.56794 4.80081 32.1077
1.38805 4.77033 31.8989
1.33071 4.76834 31.8828
1.278 4.74981 31.838
1.16366 4.74579 31.8052
1.10656 4.74377 31.7886
0.930843 4.73379 31.6726
0.869467 4.72786 31.59
0.756265 4.72376 31.5554
0.699741 4.72169 31.538
0.586851 4.71755 31.5027
0.530487 4.71547 31.4849
0.417923 4.71129 31.449
0.361724 4.70919 31.4308
0.249496 4.70496 31.3941
-0.0245555 4.70198 31.4313
-0.0805137 4.69982 31.4122
-0.13641 4.69765 31.3929
-0.192244 4.69548 31.3736
-0.259923 4.72634 31.4109
-1.21084 4.7532 31.6536
-1.51248 4.64912 31.0052
-1.62099 4.64446 30.9606
-3.51175 4.9233 32.5685
2.38469 4.87526 33.0966
2.18416 4.81918 32.72
1.99358 4.80534 32.5408
1.92954 4.76203 32.3329
1.87132 4.76011 32.3179
1.81314 4.75818 32.3028
1.755 4.75624 32.2876
1.68437 4.74644 32.139
1.10236 4.68213 31.723
0.931699 4.67608 31.6724
0.870325 4.67028 31.5898
0.757132 4.6662 31.5552
0.700612 4.66415 31.5378
0.587732 4.66004 31.5025
0.531372 4.65797 31.4846
0.418818 4.65382 31.4486
0.362624 4.65173 31.4304
0.250406 4.64754 31.3937
-0.932172 4.69851 31.6243
-0.987957 4.69624 31.6032
-1.04367 4.69397 31.5819
-1.20977 4.69492 31.6526
2.31058 4.80549 32.9454
2.25139 4.76591 32.803
1.87212 4.70157 32.3183
1.81395 4.69965 32.3031
1.75581 4.69772 32.2879
1.68517 4.68815 32.1392
1.62734 4.68621 32.1237
1.56956 4.68427 32.108
-1.20871 4.63665 31.6517
-1.38984 4.67103 31.7812
2.24469 4.70279 32.7354
1.68597 4.62986 32.1395
1.62815 4.62793 32.1239
1.57037 4.626 32.1082
1.39051 4.59644 31.8992
1.33318 4.59448 31.883
1.2805 4.57615 31.8381
1.16618 4.5722 31.8051
1.10405 4.56665 31.7229
0.928706 4.55712 31.6067
0.872041 4.55512 31.5895
0.758865 4.55109 31.5548
0.702354 4.54908 31.5373
0.589492 4.54502 31.5019
0.533142 4.54298 31.4841
0.420607 4.53889 31.448
0.364423 4.53683 31.4297
0.252226 4.5327 31.3929
-0.0217317 4.5293 31.4297
-0.077673 4.5272 31.4105
-0.195296 4.53932 31.4003
-0.257077 4.55355 31.4092
-1.5625 4.46827 30.8485
-1.84847 4.49648 30.9231
-3.48827 4.70664 32.4988
2.387 4.69609 33.0987
1.93193 4.58639 32.334
1.87372 4.5845 32.319
1.81555 4.5826 32.3038
1.68677 4.57157 32.1397
1.62895 4.56966 32.1241
1.09984 4.50546 31.6574
1.04303 4.50349 31.6406
0.929559 4.49953 31.6066
0.872899 4.49754 31.5894
0.759731 4.49355 31.5547
0.703225 4.49154 31.5371
0.590372 4.48751 31.5017
0.534027 4.48549 31.4838
0.421501 4.48143 31.4476
0.365322 4.47939 31.4294
0.253135 4.47529 31.3925
-0.929104 4.52408 31.6219
-1.3877 4.55395 31.7793
-1.50734 4.4135 30.8696
-1.56091 4.40798 30.7823
-1.61418 4.40245 30.6948
-1.77669 4.40234 30.757
-2.23803 4.45329 31.0517
-2.29182 4.45097 31.0277
-2.46557 4.46737 31.1182
-2.51928 4.46502 31.0937
-2.75605 4.49573 31.1878
2.38002 4.63262 33.0304
1.87451 4.52596 32.3193
1.68758 4.51329 32.14
1.62976 4.51138 32.1244
1.566 4.506 32.0424
-1.38662 4.49542 31.7784
-1.55979 4.35111 30.7811
-1.61305 4.34572 30.6936
-2.00749 4.37535 30.851
-2.6843 4.40707 31.1528
-2.73787 4.40473 31.1278
-2.97558 4.43523 31.2211
-3.08989 4.43734 31.3065
-3.44587 4.47035 31.4853
1.68838 4.455 32.1403
1.63056 4.4531 32.1247
1.57279 4.4512 32.1089
1.50332 4.44259 31.9604
1.38845 4.43877 31.9283
1.33108 4.43685 31.912
1.27838 4.41871 31.867
1.10657 4.39345 31.7229
1.04472 4.38826 31.6405
0.931264 4.38435 31.6064
0.874612 4.38239 31.5891
0.818011 4.38043 31.5718
0.761462 4.37846 31.5543
0.704965 4.37648 31.5367
0.648521 4.3745 31.519
0.592131 4.37251 31.5012
0.535794 4.37052 31.4833
0.423288 4.36651 31.447
0.367119 4.3645 31.4287
0.254952 4.36047 31.3918
0.0871411 4.35438 31.3354
-0.0305092 4.38906 31.4854
-0.0865348 4.387 31.4661
-0.198398 4.38287 31.4272
-0.256473 4.37755 31.3417
-1.50509 4.2995 30.8674
-1.55866 4.29424 30.7799
-1.61192 4.28898 30.6925
-1.77437 4.28857 30.7545
-2.00631 4.31824 30.8497
-2.46306 4.35198 31.1152
-2.51675 4.34969 31.0907
-2.683 4.34926 31.1512
-2.73656 4.34695 31.1262
1.87611 4.40889 32.3201
1.68918 4.39672 32.1406
1.63137 4.39483 32.1249
0.875469 4.32482 31.589
0.818872 4.32287 31.5717
0.762327 4.32091 31.5542
0.705835 4.31895 31.5366
0.649395 4.31698 31.5188
0.593009 4.31501 31.501
0.424181 4.30906 31.4467
-1.38448 4.37837 31.7765
-1.55753 4.23738 30.7788
-1.61079 4.23226 30.6913
-2.4618 4.2943 31.1138
-2.51549 4.29203 31.0892
-2.9194 4.32154 31.2434
-2.9729 4.31921 31.2178
-3.08716 4.32098 31.3031
1.68998 4.33843 32.1409
1.63217 4.33656 32.1252
1.56841 4.33154 32.0431
1.50493 4.32653 31.9608
1.44748 4.32464 31.9448
1.39008 4.32275 31.9286
-0.196516 4.26768 31.4262
-0.254583 4.26262 31.3406
-1.03642 4.28732 31.576
-1.38341 4.31986 31.7756
-2.73394 4.23141 31.123
-2.91808 4.26351 31.2418
-2.97157 4.26122 31.2162
-3.4416 4.29459 31.4797
-3.61142 4.29387 31.5383
-3.85471 4.32435 31.6304
1.69078 4.28015 32.1412
1.63297 4.27828 32.1255
1.56922 4.27339 32.0433
1.50573 4.26849 31.961
1.44829 4.26662 31.945
1.39089 4.26474 31.9288
1.33353 4.26285 31.9124
1.27622 4.26097 31.896
1.1091 4.22026 31.7229
1.04725 4.21543 31.6404
0.933819 4.21161 31.6062
0.87718 4.20969 31.5889
0.820592 4.20777 31.5714
0.764056 4.20584 31.5539
0.707572 4.2039 31.5363
0.651142 4.20197 31.5185
0.594765 4.20002 31.5006
0.538443 4.19808 31.4826
0.482176 4.19612 31.4644
0.425966 4.19417 31.4462
0.369811 4.19221 31.4278
0.257675 4.18827 31.3907
0.0842501 4.1983 31.3624
-0.083746 4.21412 31.4647
-0.195575 4.2101 31.4257
-0.253639 4.20516 31.3401
-1.38233 4.26135 31.7747
-1.55528 4.12369 30.7765
-1.60853 4.11883 30.689
-1.77088 4.11797 30.7508
-1.83937 4.14775 30.7842
-2.4593 4.17896 31.1108
-3.13786 4.20236 31.2736
-3.19119 4.20008 31.2475
-3.44018 4.23603 31.4779
-3.85321 4.26541 31.6284
1.88519 4.23624 32.3883
1.74942 4.22371 32.1571
1.69158 4.22186 32.1415
1.63378 4.22001 32.1258
1.57002 4.21524 32.0436
0.652014 4.14446 31.5183
0.595643 4.14253 31.5004
-1.55416 4.06685 30.7754
-1.6074 4.06212 30.6878
-2.91543 4.14749 31.2386
-2.9689 4.14525 31.2129
-3.43876 4.17747 31.4761
-3.85172 4.20648 31.6264
1.87928 4.17475 32.3217
1.75021 4.16542 32.1575
1.69238 4.16358 32.1418
1.63458 4.16174 32.1261
1.57082 4.15708 32.0439
1.50734 4.15243 31.9615
1.4499 4.15058 31.9454
1.39251 4.14873 31.9292
1.33516 4.14687 31.9128
-0.0818886 4.09889 31.4639
-0.193695 4.09493 31.4247
-0.251752 4.09026 31.3391
-1.03331 4.11312 31.5736
-2.0004 4.03279 30.8433
-2.9141 4.08949 31.237
-2.96756 4.08728 31.2113
-3.43734 4.11893 31.4743
-3.85022 4.14756 31.6245
1.63538 4.10346 32.1264
1.57163 4.09893 32.0442
1.50815 4.0944 31.9618
1.45071 4.09256 31.9456
1.39332 4.09072 31.9294
1.33598 4.08887 31.913
1.27868 4.08702 31.8965
1.09701 4.07612 31.7141
1.04495 4.05844 31.6688
0.93637 4.03888 31.606
0.87477 4.05282 31.617
0.818144 4.05094 31.5995
0.766646 4.03324 31.5536
0.710175 4.03135 31.5358
0.653759 4.02946 31.518
0.597396 4.02756 31.5
0.535809 4.04147 31.5103
0.479506 4.03956 31.4921
0.423259 4.03765 31.4737
0.367069 4.03574 31.4553
0.310936 4.03382 31.4367
0.254862 4.0319 31.418
0.193264 4.04578 31.4275
0.081312 4.04192 31.3895
-0.0809606 4.04127 31.4635
-0.192756 4.03736 31.4243
-0.248557 4.03539 31.4045
-1.55191 3.95319 30.7732
-1.60514 3.94873 30.6856
-1.83592 3.97696 30.7806
-2.45077 4.00088 30.9725
-2.91278 4.0315 31.2354
-2.96623 4.02932 31.2097
-3.13374 4.02803 31.2685
-3.20506 4.05843 31.3018
-3.43592 4.06039 31.4725
-3.84873 4.08865 31.6225
1.88087 4.05768 32.3226
1.82273 4.05586 32.3072
1.7518 4.04883 32.1582
1.69397 4.04701 32.1425
1.63618 4.04519 32.1268
1.57243 4.04078 32.0445
1.50895 4.03638 31.9621
-0.191817 3.97978 31.4238
-2.2312 3.94693 30.9349
-2.44952 3.94347 30.9711
-2.91145 3.97352 31.2338
-3.84723 4.02975 31.6206
1.82352 3.99734 32.3076
1.7526 3.99054 32.1586
1.69477 3.98873 32.1429
1.63698 3.98692 32.1271
1.57323 3.98263 32.0448
1.50975 3.97835 31.9623
1.45232 3.97653 31.9461
1.39494 3.97471 31.9298
1.3376 3.97289 31.9134
1.28031 3.97106 31.8968
0.0831257 3.92703 31.3888
-0.0817085 3.92369 31.3967
-0.190878 3.92221 31.4234
-0.248924 3.91793 31.3376
-1.03021 3.93896 31.5713
-1.83362 3.86313 30.7783
-2.44828 3.88607 30.9697
-2.79666 3.91496 31.1472
-3.84574 3.97086 31.6187
-3.952 3.96642 31.5626
1.63778 3.92865 32.1275
1.57403 3.92449 32.0451
1.51056 3.92032 31.9626
1.45313 3.91852 31.9464
1.39575 3.91671 31.9301
1.33841 3.9149 31.9136
1.27575 3.91075 31.831
1.10427 3.88731 31.686
1.04746 3.88548 31.6689
0.990691 3.88366 31.6517
0.933975 3.88183 31.6344
0.882303 3.86434 31.5886
0.825741 3.8625 31.571
0.769231 3.86066 31.5533
0.712774 3.85882 31.5355
0.656371 3.85697 31.5176
0.600022 3.85512 31.4996
0.543728 3.85327 31.4814
0.420507 3.88084 31.5015
0.364281 3.87898 31.4829
0.308113 3.87711 31.4643
0.252003 3.87523 31.4455
0.195953 3.87336 31.4266
0.0840319 3.8696 31.3885
-0.080784 3.86619 31.3964
-0.245725 3.86274 31.4031
-1.02918 3.88092 31.5706
-1.54811 3.78065 30.7049
-1.60175 3.77869 30.6823
-1.83248 3.80623 30.7771
-2.44703 3.82868 30.9683
-3.12962 3.85377 31.2635
-3.20098 3.88391 31.2969
-3.84425 3.91198 31.6167
1.82511 3.88029 32.3085
1.75419 3.87395 32.1594
1.69636 3.87217 32.1437
1.63858 3.87038 32.1278
1.57483 3.86634 32.0454
1.51136 3.86229 31.9629
-0.0798599 3.8087 31.396
-0.247041 3.80306 31.3367
-1.26363 3.85135 31.6765
-1.83133 3.74933 30.776
-2.04801 3.74554 30.8134
-2.22759 3.7751 30.9311
-3.67232 3.85492 31.5572
1.76139 3.81783 32.2266
1.69716 3.81389 32.1441
1.63938 3.81211 32.1282
1.57563 3.80819 32.0458
1.51216 3.80427 31.9632
1.45474 3.80249 31.947
1.39737 3.80071 31.9306
1.34004 3.79892 31.9141
1.27738 3.79502 31.8314
0.141762 3.75658 31.4071
0.0858429 3.75473 31.3879
-0.246101 3.74563 31.3363
-1.26259 3.79306 31.6757
-1.83018 3.69244 30.7749
-2.44455 3.71391 30.9656
-3.41972 3.7636 31.3249
-3.84126 3.79425 31.6129
1.64018 3.75384 32.1286
1.57643 3.75004 32.0461
1.51296 3.74624 31.9635
1.45555 3.74448 31.9473
1.39817 3.74271 31.9308
1.34085 3.74093 31.9143
1.27819 3.73715 31.8316
1.10195 3.72981 31.7148
1.0451 3.72803 31.6977
0.988292 3.72625 31.6804
0.931537 3.72446 31.663
0.879845 3.70718 31.617
0.823245 3.70539 31.5994
0.761582 3.71908 31.6101
0.705036 3.71728 31.5922
0.648545 3.71548 31.5742
0.535726 3.71187 31.5378
0.4794 3.71005 31.5195
0.423132 3.70824 31.501
0.36692 3.70643 31.4824
0.310767 3.70461 31.4637
0.254672 3.70279 31.4448
0.198637 3.70096 31.4259
0.142662 3.69914 31.4068
0.0867476 3.69731 31.3876
-0.0806239 3.6918 31.3293
-0.242896 3.69012 31.4018
-1.26154 3.73478 31.6749
-1.49856 3.76299 31.7808
-1.60562 3.62411 30.7071
-1.82903 3.63555 30.7737
-2.17162 3.66252 30.9527
-2.27866 3.65864 30.9043
-2.4433 3.65654 30.9642
-3.66942 3.73749 31.5536
2.39073 3.79797 33.0412
1.76298 3.70102 32.2275
1.69875 3.69733 32.1449
1.64097 3.69557 32.129
1.57723 3.6919 32.0465
1.51376 3.68822 31.9639
1.45635 3.68646 31.9476
-0.0797033 3.63444 31.329
-0.241955 3.63259 31.4014
-1.82788 3.57868 30.7726
-2.04445 3.57453 30.8098
-2.17043 3.60524 30.9515
-2.27745 3.60141 30.903
-2.67739 3.62633 31.0552
-2.89676 3.62215 31.0885
-3.4169 3.64711 31.3215
-3.66797 3.67879 31.5518
1.76377 3.64262 32.228
1.69954 3.63905 32.1453
1.64177 3.63731 32.1294
1.57803 3.63375 32.0469
1.51456 3.63019 31.9642
1.45715 3.62845 31.9479
1.39979 3.62671 31.9314
1.34247 3.62496 31.9148
1.27982 3.62142 31.8321
0.256449 3.58783 31.4444
0.200424 3.58604 31.4254
0.144459 3.58425 31.4063
0.0885556 3.58246 31.3871
-0.0787832 3.57707 31.3286
-0.241013 3.57506 31.4009
-1.82674 3.5218 30.7715
-2.27624 3.5442 30.9018
-2.67612 3.56875 31.0538
-3.36235 3.59086 31.3467
-3.66652 3.62009 31.55
-3.96284 3.64597 31.6123
2.39225 3.67871 33.043
1.57281 3.5739 31.9808
1.51536 3.57217 31.9646
1.45795 3.57044 31.9482
1.40059 3.56871 31.9317
1.34328 3.56698 31.9151
1.28063 3.56356 31.8323
1.21825 3.56015 31.7494
1.10442 3.55668 31.7153
1.04757 3.55494 31.6981
0.990779 3.5532 31.6807
0.934036 3.55145 31.6633
0.877345 3.54971 31.6457
0.820706 3.54796 31.628
0.707587 3.54446 31.5922
0.651108 3.5427 31.5741
0.538317 3.53919 31.5376
0.482006 3.53743 31.5192
0.425751 3.53566 31.5006
0.369554 3.5339 31.4819
0.313416 3.53213 31.4632
0.257336 3.53036 31.4442
0.201317 3.52859 31.4252
0.145357 3.52682 31.4061
0.0894587 3.52504 31.3868
0.033622 3.52327 31.3674
-0.0778637 3.51971 31.3283
-1.2584 3.55998 31.6727
-1.60955 3.46926 30.732
-1.82559 3.46494 30.7704
-2.27503 3.48699 30.9005
-2.38616 3.48633 30.9849
-2.89414 3.50677 31.0855
2.39301 3.61908 33.0439
2.31828 3.61377 32.8914
1.75893 3.5242 32.1621
1.70113 3.52248 32.1462
1.64336 3.52077 32.1302
1.57962 3.51746 32.0477
1.51616 3.51415 31.9649
1.45876 3.51243 31.9486
1.4014 3.51071 31.932
1.34409 3.50899 31.9154
0.146254 3.46938 31.4058
0.0903613 3.46763 31.3865
0.03453 3.46587 31.3671
-0.0769448 3.46235 31.328
-0.241405 3.45853 31.3342
-1.14685 3.50222 31.5803
-2.0564 3.43424 30.8631
-2.27383 3.42979 30.8993
