-1.15991 4.37994 30.1256
-1.26577 4.37561 30.0828
-1.42438 4.37544 30.1428
-1.52991 4.37106 30.0989
-1.58257 4.36886 30.0768
-1.68763 4.36445 30.0322
-1.79238 4.36002 29.9873
-1.95143 4.35966 30.0443
-2.05579 4.35518 29.9982
-2.15983 4.35068 29.9518
2.26781 4.69237 33.0704
2.19346 4.68279 32.9181
1.93735 4.62679 32.5272
1.8788 4.62489 32.5122
1.81139 4.59909 32.3329
1.75741 4.58069 32.2885
1.69305 4.57517 32.2064
1.62895 4.56966 32.1241
1.57118 4.56773 32.1085
1.10489 4.50892 31.7229
1.04303 4.50349 31.6406
0.986269 4.50151 31.6236
0.920245 4.49266 31.4762
0.309199 4.47734 31.411
0.253135 4.47529 31.3925
0.197128 4.47323 31.3739
0.14118 4.47117 31.3552
0.0295203 4.33258 30.3888
-0.0246141 4.33055 30.3698
-0.186648 4.32443 30.3124
-0.240535 4.32238 30.293
-0.294357 4.32032 30.2735
-1.7912 4.30444 29.9859
-1.95022 4.30394 30.0429
-2.15858 4.29507 29.9503
-2.21046 4.29284 29.9269
-2.318 4.29445 30.0053
-2.42159 4.28995 29.9576
-2.47325 4.2877 29.9337
-2.52483 4.28544 29.9096
-2.58433 4.29905 29.9126
-2.64383 4.31264 29.9155
2.19424 4.62331 32.9187
2.06947 4.5789 32.693
1.75822 4.52217 32.2888
1.69385 4.51678 32.2067
1.62976 4.51138 32.1244
1.57198 4.50947 32.1087
0.310103 4.41991 31.4106
0.254043 4.41788 31.3921
0.198042 4.41584 31.3735
-1.26359 4.26442 30.0806
-1.58028 4.25752 30.0743
-1.68531 4.2532 30.0296
-1.73771 4.25104 30.0072
-1.79003 4.24887 29.9846
-2.10539 4.24166 29.9721
-2.15734 4.23946 29.9488
-2.20921 4.23726 29.9253
2.26936 4.57295 33.0718
2.07025 4.51978 32.6935
1.93892 4.50903 32.5281
1.63056 4.4531 32.1247
1.57279 4.4512 32.1089
1.38845 4.43877 31.9283
1.33108 4.43685 31.912
1.27838 4.41871 31.867
1.10152 4.3902 31.6573
1.04472 4.38826 31.6405
0.987966 4.38631 31.6235
0.921942 4.37792 31.476
0.311006 4.36249 31.4103
0.254952 4.36047 31.3918
0.198956 4.35845 31.3731
0.143019 4.35642 31.3543
0.0314141 4.22108 30.3875
-0.022709 4.21908 30.3686
-0.184708 4.21306 30.311
-0.292394 4.20903 30.272
-0.34614 4.20701 30.2524
-0.399821 4.20498 30.2326
-0.453437 4.20295 30.2128
-0.56654 4.21446 30.1994
-0.724227 4.21403 30.2628
-0.890856 4.22346 30.2278
-0.997403 4.2193 30.1859
-1.05057 4.21721 30.1649
-1.10366 4.21512 30.1437
-1.15668 4.21303 30.1224
-1.26249 4.20883 30.0794
-1.42065 4.20251 30.0143
-1.57913 4.20186 30.073
-1.68415 4.19759 30.0283
-1.73654 4.19545 30.0059
-1.78885 4.1933 29.9833
-1.84108 4.19116 29.9606
-1.94529 4.18686 29.9149
2.27013 4.51324 33.0724
1.99829 4.45201 32.5435
1.93971 4.45015 32.5285
1.88117 4.44828 32.5134
1.81794 4.40702 32.3048
1.75982 4.40514 32.2894
1.69546 4.39998 32.2073
1.63137 4.39483 32.1249
1.5736 4.39294 32.1092
1.10236 4.33258 31.6573
1.04556 4.33065 31.6404
0.988814 4.32871 31.6234
0.92279 4.32056 31.4759
0.311909 4.30507 31.41
0.25586 4.30307 31.3914
0.199869 4.30106 31.3727
0.143937 4.29905 31.3539
0.0323605 4.16533 30.3869
-0.021757 4.16335 30.3679
-0.183739 4.15739 30.3103
-1.57799 4.1462 30.0718
-1.68299 4.14198 30.0271
-1.73537 4.13987 30.0045
-1.78768 4.13775 29.9819
-1.8399 4.13563 29.9592
-1.94409 4.13137 29.9135
-2.10292 4.13041 29.9691
-2.15486 4.12826 29.9458
-2.20671 4.12611 29.9223
-2.4773 4.13645 29.956
-2.53689 4.14998 29.9591
-2.58844 4.14779 29.9348
-2.63989 4.1456 29.9105
2.19655 4.44489 32.9206
2.13729 4.44305 32.9061
2.07182 4.40154 32.6946
1.99907 4.39313 32.544
1.94049 4.39127 32.529
1.69626 4.34159 32.2076
1.63217 4.33656 32.1252
1.5744 4.33468 32.1094
1.39008 4.32275 31.9286
0.312812 4.24765 31.4096
-0.730898 4.11272 30.1633
-0.888773 4.112 30.2259
-0.995292 4.10792 30.184
-1.04844 4.10588 30.1628
-1.10152 4.10384 30.1416
-1.15453 4.10179 30.1203
-1.26031 4.09768 30.0773
-1.31309 4.09562 30.0556
-1.41842 4.09149 30.012
-1.57685 4.09056 30.0705
-1.68183 4.08638 30.0258
-1.73421 4.08429 30.0033
-1.7865 4.0822 29.9806
-1.83871 4.0801 29.9579
-1.94289 4.0759 29.9121
-2.10169 4.0748 29.9677
2.27168 4.39382 33.0738
1.99985 4.33424 32.5445
1.94128 4.33239 32.5295
1.63297 4.27828 32.1255
1.57521 4.27641 32.1097
1.39089 4.26474 31.9288
1.33353 4.26285 31.9124
1.28086 4.24492 31.8673
1.10404 4.21734 31.6573
1.04725 4.21543 31.6404
0.990509 4.21352 31.6233
0.924484 4.20583 31.4758
0.313714 4.19024 31.4093
0.257675 4.18827 31.3907
0.201694 4.18629 31.372
0.145773 4.18431 31.3531
0.0342525 4.05385 30.3858
-0.0198537 4.0519 30.3667
-0.181801 4.04605 30.3089
-0.28945 4.04213 30.2698
-0.343178 4.04016 30.2501
-0.396841 4.03819 30.2303
-0.456439 4.05165 30.2371
-0.56962 4.06312 30.2236
-0.62311 4.06113 30.2033
-0.729882 4.05714 30.1624
-0.887731 4.05628 30.225
-1.04738 4.05023 30.1618
-1.15345 4.04617 30.1192
-1.20637 4.04414 30.0977
-1.25922 4.04211 30.0762
-1.31199 4.04007 30.0545
-1.41731 4.03599 30.0108
-1.5757 4.03492 30.0693
-1.68068 4.03079 30.0245
-1.73304 4.02872 30.002
-1.78532 4.02665 29.9793
-2.58583 4.03642 29.9316
-2.63453 4.03173 29.8442
2.1981 4.32594 32.9219
2.00063 4.27535 32.545
1.94206 4.27352 32.53
1.88353 4.27168 32.5148
1.81195 4.26377 32.3645
1.76222 4.22959 32.2905
1.69158 4.22186 32.1415
1.63378 4.22001 32.1258
1.57602 4.21815 32.11
0.991356 4.15593 31.6233
0.314616 4.13283 31.409
0.258582 4.13087 31.3904
0.202606 4.12892 31.3716
0.14669 4.12695 31.3527
-0.0215706 3.99375 30.3043
-1.31089 3.98453 30.0534
-1.41619 3.9805 30.0097
-1.57456 3.97928 30.0681
-1.67952 3.97521 30.0233
-1.73187 3.97316 30.0007
-1.78415 3.97112 29.978
-1.83634 3.96907 29.9552
-1.94049 3.96497 29.9094
-2.09922 3.9636 29.9648
-2.20296 3.95946 29.9178
-2.32187 3.98631 29.9244
-2.4814 3.98495 29.9786
-2.58453 3.98075 29.93
-2.63322 3.9762 29.8426
2.19887 4.26646 32.9226
2.07417 4.22418 32.6962
2.00141 4.21646 32.5456
1.69866 4.16641 32.2086
1.63458 4.16174 32.1261
1.57682 4.15989 32.1102
1.39251 4.14873 31.9292
1.33516 4.14687 31.9128
-0.887447 3.94013 30.0985
-1.04526 3.93893 30.1599
-1.1513 3.93497 30.1172
-1.2042 3.93298 30.0957
-1.25704 3.93099 30.074
-1.30979 3.929 30.0523
-1.41508 3.92501 30.0085
-1.67836 3.91963 30.022
-1.73071 3.91761 29.9994
-1.83516 3.91357 29.9539
-1.93929 3.90951 29.908
2.274 4.21468 33.076
2.00219 4.15757 32.5461
1.94363 4.15576 32.531
1.63538 4.10346 32.1264
1.57763 4.10163 32.1105
1.39332 4.09072 31.9294
1.33598 4.08887 31.913
1.27331 4.08435 31.8304
1.10655 4.04449 31.6574
1.04977 4.04263 31.6404
0.993048 4.04076 31.6233
0.316418 4.01801 31.4084
0.260394 4.01609 31.3897
0.204429 4.01417 31.3709
0.148524 4.01224 31.352
0.0370876 3.88666 30.3841
-0.0196739 3.88253 30.3032
-0.178897 3.87908 30.307
-0.292392 3.89055 30.2945
-0.352078 3.90392 30.3015
-0.459489 3.90008 30.2616
-0.513094 3.89816 30.2415
-0.566632 3.89624 30.2212
-0.620102 3.89431 30.2009
-0.726836 3.89045 30.1599
-0.886411 3.88464 30.0976
-1.0442 3.88329 30.1589
-1.15022 3.87937 30.1162
-1.20312 3.87741 30.0946
-1.25595 3.87544 30.073
-1.3087 3.87347 30.0512
-1.36137 3.8715 30.0294
-1.41397 3.86953 30.0074
-2.58192 3.86942 29.9268
-2.6306 3.86514 29.8393
2.20041 4.1475 32.924
2.00297 4.09869 32.5466
1.94441 4.09688 32.5315
1.8143 4.08786 32.3658
1.76462 4.05405 32.2917
1.69397 4.04701 32.1425
1.63618 4.04519 32.1268
1.57843 4.04337 32.1108
1.50895 4.03638 31.9621
0.317318 3.96061 31.4081
0.2613 3.95871 31.3894
-1.14915 3.82378 30.1152
-1.20204 3.82184 30.0936
-1.25486 3.8199 30.0719
-1.3076 3.81795 30.0502
-1.36027 3.81601 30.0283
-1.41285 3.81406 30.0063
-1.46537 3.81211 29.9842
-1.57015 3.8082 29.9397
-1.72837 3.80652 29.9969
-1.8328 3.80258 29.9513
-1.93689 3.79863 29.9053
-2.09553 3.79686 29.9605
-2.2146 3.82358 29.9676
-2.26641 3.82158 29.9439
-2.31812 3.81957 29.92
-2.36975 3.81756 29.896
-2.58062 3.81378 29.9252
-2.62929 3.80963 29.8377
2.20118 4.08802 32.9247
2.13142 4.06472 32.7427
2.07652 4.04681 32.698
2.00375 4.0398 32.5472
1.94519 4.038 32.532
1.69477 3.98873 32.1429
1.63698 3.98692 32.1271
1.57923 3.98511 32.1112
1.45232 3.97653 31.9461
1.39494 3.97471 31.9298
1.3376 3.97289 31.9134
1.27494 3.96862 31.8308
-0.618098 3.78313 30.1994
-0.671487 3.78124 30.1789
-0.724806 3.77935 30.1583
-0.778055 3.77745 30.1376
-0.884341 3.77366 30.0959
-1.04207 3.77203 30.157
-1.14807 3.7682 30.1142
-1.20096 3.76628 30.0926
-1.25377 3.76436 30.0709
-1.3065 3.76244 30.0491
-1.35916 3.76051 30.0272
-1.41174 3.75859 30.0052
-1.46424 3.75666 29.9831
-1.56902 3.7528 29.9386
-1.72721 3.75099 29.9957
-2.57932 3.75814 29.9236
-2.62799 3.75413 29.8362
2.27631 4.03553 33.0782
2.00453 3.98091 32.5478
1.94597 3.97912 32.5326
1.58004 3.92685 32.1115
1.51056 3.92032 31.9626
1.45313 3.91852 31.9464
1.39575 3.91671 31.9301
1.33841 3.9149 31.9136
1.27575 3.91075 31.831
1.21805 3.89094 31.7198
1.10427 3.88731 31.686
1.04746 3.88548 31.6689
0.995582 3.868 31.6233
0.929559 3.86169 31.4755
0.319117 3.84582 31.4076
0.20716 3.84207 31.37
0.145616 3.85584 31.3793
0.039919 3.7195 30.3825
-0.0195103 3.71382 30.2397
-0.186454 3.72338 30.208
-0.349167 3.73684 30.2995
-0.456541 3.73313 30.2595
-0.510127 3.73127 30.2393
-0.617097 3.72754 30.1986
-0.670479 3.72567 30.1781
-0.723792 3.7238 30.1575
-0.777034 3.72193 30.1368
-0.883306 3.71818 30.095
-1.04101 3.7164 30.1561
-1.19987 3.71072 30.0916
-1.30541 3.70693 30.0481
-1.35806 3.70503 30.0261
-1.41063 3.70313 30.0041
-2.21214 3.71235 29.9648
-2.26393 3.7104 29.941
-2.31563 3.70845 29.9171
-2.36724 3.7065 29.8931
-2.47019 3.70259 29.8448
-2.57802 3.7025 29.9221
-2.62668 3.69863 29.8346
2.20271 3.96906 32.9261
2.00531 3.92202 32.5483
1.94675 3.92024 32.5331
1.87489 3.91374 32.3827
1.81665 3.91196 32.3672
1.76273 3.89434 32.3223
1.69636 3.87217 32.1437
1.63858 3.87038 32.1278
1.58084 3.86859 32.1118
1.51136 3.86229 31.9629
1.45394 3.8605 31.9467
-0.776013 3.66641 30.1359
-0.882272 3.66271 30.0941
-1.03995 3.66078 30.1552
-1.19879 3.65517 30.0906
-1.30431 3.65143 30.047
-1.35695 3.64955 30.0251
-1.40952 3.64767 30.003
-1.46201 3.64579 29.9809
-1.56675 3.64203 29.9363
-1.72488 3.63995 29.9932
-1.88868 3.64941 29.9513
-1.9407 3.6475 29.9282
-2.0001 3.66075 29.9318
-2.26269 3.65482 29.9396
-2.31438 3.6529 29.9157
-2.36598 3.65098 29.8916
-2.46892 3.64712 29.8433
-2.62265 3.64134 29.7701
2.20348 3.90958 32.9269
2.13772 3.8712 32.7148
2.07886 3.86944 32.6999
2.00609 3.86313 32.5489
1.94753 3.86136 32.5337
1.69716 3.81389 32.1441
1.63938 3.81211 32.1282
1.57563 3.80819 32.0458
1.51216 3.80427 31.9632
1.45474 3.80249 31.947
1.39737 3.80071 31.9306
1.34004 3.79892 31.9141
1.28276 3.79713 31.8974
-0.508151 3.62003 30.2379
-0.615096 3.61638 30.1971
-0.668465 3.61456 30.1766
-0.721764 3.61273 30.1559
-0.774993 3.6109 30.1351
-0.881238 3.60724 30.0933
-0.934253 3.6054 30.0722
-1.19771 3.59963 30.0896
-1.30321 3.59593 30.046
-1.35585 3.59408 30.024
-1.46089 3.59037 29.9798
-1.51329 3.58851 29.9575
-1.56561 3.58665 29.9351
-2.46764 3.59167 29.8418
-2.62135 3.58596 29.7685
2.27862 3.85637 33.0806
2.00687 3.80424 32.5495
1.94831 3.80248 32.5343
1.87645 3.79644 32.3838
1.57643 3.75004 32.0461
1.51296 3.74624 31.9635
1.45555 3.74448 31.9473
1.39817 3.74271 31.9308
1.34085 3.74093 31.9143
1.27819 3.73715 31.8316
1.21581 3.73337 31.7487
1.10195 3.72981 31.7148
1.04996 3.71254 31.6692
0.988448 3.70878 31.5862
0.316289 3.68912 31.4353
0.209885 3.67 31.3691
0.148337 3.68366 31.3784
0.0809147 3.69345 31.2564
-0.0223101 3.56229 30.2646
-0.0761336 3.56051 30.2452
-0.189364 3.57186 30.2327
-0.350209 3.56651 30.1734
-0.507164 3.56442 30.2372
-0.614096 3.56081 30.1964
-0.667458 3.55901 30.1758
-0.720751 3.5572 30.1551
-0.773973 3.55539 30.1343
-0.880205 3.55177 30.0924
-0.933213 3.54996 30.0713
-1.03901 3.54633 30.0288
-1.19663 3.54409 30.0886
-2.10141 3.54606 29.8823
-2.26021 3.54369 29.9368
-2.31189 3.54183 29.9128
-2.36347 3.53996 29.8888
-2.46637 3.53622 29.8403
-2.62005 3.5306 29.7669
2.20501 3.79061 32.9284
2.00764 3.74535 32.5501
1.87723 3.7378 32.3843
1.81899 3.73605 32.3688
1.7608 3.7343 32.3531
1.69875 3.69733 32.1449
1.64097 3.69557 32.129
1.57723 3.6919 32.0465
1.51376 3.68822 31.9639
1.45635 3.68646 31.9476
1.39898 3.68471 31.9311
-0.666452 3.50346 30.1751
-0.772954 3.49989 30.1335
-0.879172 3.49631 30.0916
-0.932173 3.49452 30.0705
-1.03796 3.49094 30.0279
-1.35364 3.48315 30.0219
-1.45865 3.47953 29.9776
-1.51104 3.47773 29.9553
-1.56334 3.47592 29.9329
-1.61557 3.47411 29.9103
-1.71978 3.47049 29.865
-1.89253 3.49796 29.9745
-1.99654 3.4943 29.928
-2.1002 3.49064 29.881
-2.25898 3.48814 29.9354
-2.31064 3.4863 29.9114
-2.36221 3.48446 29.8873
-2.4651 3.48077 29.8389
2.20578 3.73112 32.9292
2.13205 3.72535 32.7767
2.08119 3.69206 32.7019
2.00842 3.68645 32.5508
1.64177 3.63731 32.1294
1.57803 3.63375 32.0469
1.51456 3.63019 31.9642
1.45715 3.62845 31.9479
1.39979 3.62671 31.9314
1.34247 3.62496 31.9148
1.27982 3.62142 31.8321
1.21744 3.61789 31.7491
-0.24114 3.45908 30.2119
-0.348281 3.45559 30.1721
-0.505191 3.4532 30.2359
-0.612097 3.44968 30.1949
-0.665446 3.44792 30.1743
-0.771935 3.44439 30.1328
-0.825073 3.44263 30.1118
-0.87814 3.44086 30.0908
-0.931134 3.43909 30.0696
-1.0369 3.43556 30.027
-1.195 3.43024 29.9623
-1.35254 3.42769 30.0209
-1.45753 3.42413 29.9765
-1.50991 3.42234 29.9542
-2.25774 3.4326 29.934
-2.30939 3.43078 29.91
-2.36096 3.42897 29.8859
-2.41243 3.42715 29.8617
-2.46382 3.42534 29.8374
-2.61744 3.41989 29.7639
2.28092 3.6772 33.083
2.00919 3.62756 32.5514
1.87878 3.6205 32.3854
1.82055 3.61878 32.3698
1.51536 3.57217 31.9646
1.45795 3.57044 31.9482
1.40059 3.56871 31.9317
1.34328 3.56698 31.9151
1.28063 3.56356 31.8323
1.21825 3.56015 31.7494
1.16131 3.55842 31.7324
1.10442 3.55668 31.7153
1.04757 3.55494 31.6981
0.990948 3.53622 31.5865
0.318958 3.51681 31.4347
0.145357 3.52682 31.4061
0.0836145 3.52184 31.2556
-0.0251552 3.41048 30.2897
-0.0790088 3.40876 30.2703
-0.132799 3.40704 30.2507
-0.186526 3.40531 30.2311
-0.240188 3.40359 30.2114
-0.347317 3.40013 30.1715
-0.504205 3.3976 30.2352
-0.664441 3.39238 30.1736
-0.770916 3.3889 30.132
-0.824048 3.38716 30.111
-0.877108 3.38541 30.09
-0.930095 3.38367 30.0688
-1.03585 3.38017 30.0261
-1.99416 3.38337 29.9255
-2.04602 3.38159 29.902
-2.09779 3.37981 29.8784
-2.2565 3.37706 29.9327
-2.3597 3.37348 29.8845
-2.41117 3.3717 29.8603
-2.46255 3.36991 29.8359
-2.61614 3.36455 29.7623
2.20731 3.61215 32.9307
1.87956 3.56185 32.386
1.82133 3.56014 32.3704
1.76315 3.55843 32.3546
1.70113 3.52248 32.1462
1.64336 3.52077 32.1302
1.57962 3.51746 32.0477
1.51616 3.51415 31.9649
1.45876 3.51243 31.9486
1.4014 3.51071 31.932
1.34409 3.50899 31.9154
-0.663436 3.33685 30.1729
-0.769898 3.33341 30.1312
-0.823023 3.33169 30.1103
-0.876076 3.32997 30.0892
-0.929057 3.32825 30.068
-0.981964 3.32652 30.0467
-1.0348 3.3248 30.0253
-1.08756 3.32308 30.0038
-1.19285 3.31963 29.9604
-1.35034 3.3168 30.0189
-1.4553 3.31333 29.9744
-1.50766 3.3116 29.9521
-1.55995 3.30986 29.9296
-1.61926 3.32292 29.9336
-1.72351 3.31945 29.8881
-1.88902 3.33141 29.9709
-1.99298 3.32791 29.9242
-2.04483 3.32616 29.9007
-2.09659 3.32441 29.8771
-2.14827 3.32266 29.8534
-2.35845 3.31801 29.8831
-2.40991 3.31625 29.8588
2.20807 3.55266 32.9316
2.01074 3.50978 32.5527
1.64416 3.4625 32.1307
1.58042 3.45931 32.0481
1.51696 3.45612 31.9653
1.45956 3.45442 31.9489
1.4022 3.45272 31.9324
1.3449 3.45101 31.9157
1.28225 3.44784 31.8328
1.21988 3.44468 31.7498
1.16294 3.44297 31.7328
0.147151 3.41195 31.4056
-0.184636 3.2943 30.2301
-0.238287 3.29261 30.2103
-0.345392 3.28924 30.1704
-0.505551 3.28417 30.1097
-0.662432 3.28133 30.1722
-0.821999 3.27623 30.1095
-0.928019 3.27283 30.0672
-0.980919 3.27113 30.0458
-1.03375 3.26943 30.0244
-1.0865 3.26773 30.0029
-1.19178 3.26433 29.9595
-2.09539 3.26902 29.8759
-2.14706 3.26729 29.8521
-2.3572 3.26254 29.8817
-2.40865 3.26081 29.8574
-2.46 3.25908 29.8331
-2.51127 3.25735 29.8086
-2.61354 3.2539 29.7593
2.20883 3.49317 32.9324
2.01152 3.45088 32.5534
1.88111 3.44456 32.3872
1.82289 3.44287 32.3715
1.51775 3.3981 31.9657
1.46036 3.39641 31.9493
1.40301 3.39472 31.9327
1.3457 3.39303 31.916
1.28306 3.38998 31.8331
1.22069 3.38694 31.7501
1.16376 3.38525 31.733
1.10688 3.38355 31.7159
1.05004 3.38186 31.6986
0.988497 3.37883 31.6154
0.927232 3.37582 31.5322
0.31606 3.35968 31.4627
0.148047 3.35452 31.4054
0.0863096 3.35026 31.2548
0.0315269 3.24546 30.3077
-0.0223726 3.2438 30.2884
-0.0762093 3.24213 30.2689
-0.129983 3.24047 30.2493
-0.183692 3.2388 30.2296
-0.237337 3.23713 30.2098
-0.290916 3.23547 30.1898
-0.34443 3.2338 30.1698
-0.397877 3.23213 30.1497
-0.50457 3.2288 30.1091
-0.664096 3.22379 30.0474
-0.820975 3.22077 30.1087
-1.88668 3.22042 29.9686
-1.9906 3.21702 29.9218
-2.04244 3.21533 29.8982
-2.09418 3.21363 29.8746
-2.14585 3.21194 29.8509
-2.35594 3.20708 29.8803
-2.40738 3.20538 29.856
-2.45873 3.20368 29.8316
-2.50999 3.20198 29.8071
-2.56116 3.20028 29.7825
2.2096 3.43367 32.9332
1.88189 3.38591 32.3878
1.82367 3.38423 32.3721
1.7035 3.34764 32.1477
1.64575 3.34597 32.1316
1.58201 3.34302 32.0489
1.51855 3.34008 31.9661
1.46116 3.3384 31.9496
1.40381 3.33672 31.9331
-0.50359 3.17342 30.1085
-0.663097 3.16848 30.0467
-0.819952 3.16532 30.108
-0.925945 3.16201 30.0656
-0.978831 3.16036 30.0442
-1.03164 3.15871 30.0227
-1.08438 3.15705 30.0011
-1.18963 3.15374 29.9577
-1.24215 3.15209 29.9358
-1.34704 3.15051 30.016
-1.50429 3.14553 29.9489
-1.623 3.17148 29.9571
-1.7273 3.16815 29.9114
-1.98942 3.16159 29.9206
-2.04124 3.15992 29.897
-2.09298 3.15825 29.8733
-2.14463 3.15658 29.8496
2.13662 3.36984 32.7813
2.01306 3.33309 32.5548
1.94092 3.32893 32.404
1.5828 3.28488 32.0494
1.51935 3.28206 31.9665
1.46196 3.28039 31.95
1.40461 3.27873 31.9334
1.27928 3.27313 31.7676
1.22231 3.27147 31.7506
1.16539 3.26981 31.7335
1.10851 3.26814 31.7163
1.05169 3.26648 31.699
0.994913 3.26481 31.6815
0.317819 3.24472 31.4625
0.149838 3.23967 31.405
0.0881034 3.23589 31.2544
0.0333682 3.13431 30.3069
-0.0205201 3.13269 30.2875
-0.0743456 3.13106 30.268
-0.128108 3.12944 30.2484
-0.181805 3.12781 30.2286
-0.235438 3.12618 30.2088
-0.289006 3.12456 30.1888
-0.342508 3.12293 30.1687
-0.395943 3.12131 30.1485
-0.502611 3.11805 30.1079
-0.555843 3.11643 30.0874
-0.662098 3.11318 30.046
-0.81893 3.10988 30.1072
-0.924908 3.10661 30.0648
-0.977788 3.10498 30.0434
-1.03059 3.10335 30.0219
-1.08333 3.10172 30.0003
-1.98823 3.10616 29.9194
-2.04005 3.10452 29.8958
-2.09178 3.10288 29.8721
-2.14342 3.10124 29.8483
-2.24645 3.09796 29.8004
-2.40486 3.09454 29.8533
-2.50743 3.09126 29.8043
-2.55859 3.08961 29.7796
-2.60965 3.08797 29.7549
2.2855 3.31882 33.0883
2.01383 3.2742 32.5555
1.94169 3.27026 32.4047
1.88343 3.26861 32.3891
1.82522 3.26696 32.3733
1.46276 3.22239 31.9504
1.28009 3.21539 31.7679
1.22312 3.21374 31.7509
1.1662 3.21209 31.7338
1.10933 3.21044 31.7165
1.05251 3.20879 31.6992
0.990969 3.20614 31.6159
0.92971 3.20349 31.5326
0.318698 3.18724 31.4624
0.150732 3.18225 31.4049
0.0889995 3.1787 31.2542
0.0342881 3.07874 30.3066
-0.0195947 3.07714 30.2871
-0.0734146 3.07553 30.2676
-0.127171 3.07393 30.2479
-0.23449 3.07072 30.2083
-0.288052 3.06911 30.1883
-0.341547 3.0675 30.1682
-0.394977 3.0659 30.148
-0.448338 3.06429 30.1277
-0.501632 3.06269 30.1073
-0.554858 3.06108 30.0867
-0.6611 3.05788 30.0454
-1.67293 3.05908 29.9322
-1.72502 3.05746 29.9093
-1.77703 3.05585 29.8862
-1.8808 3.05263 29.8398
-2.03886 3.04913 29.8946
-2.14221 3.0459 29.8471
-2.24522 3.04268 29.7991
2.21188 3.25519 32.9358
1.94246 3.2116 32.4053
1.88421 3.20996 32.3897
1.70587 3.1728 32.1492
1.64812 3.17116 32.1331
1.58439 3.16859 32.0503
1.52094 3.16602 31.9674
1.46355 3.16438 31.9508
1.28089 3.15764 31.7682
-0.287098 3.01367 30.1878
-0.340588 3.01208 30.1677
-0.394011 3.0105 30.1474
-0.447366 3.00891 30.1271
-0.500654 3.00733 30.1067
-0.553873 3.00575 30.0861
-0.660103 3.00258 30.0447
-0.922838 2.99583 30.0632
-0.975704 2.99424 30.0418
-1.08121 2.99107 29.9986
-1.13385 2.98949 29.9769
-1.18642 2.98791 29.955
-1.24567 3.00078 29.9595
-1.35051 2.99761 29.9153
-1.51506 3.00848 29.9995
-1.61964 3.0053 29.954
-1.6718 3.00371 29.9312
-1.72389 3.00213 29.9082
-1.77589 3.00054 29.8851
-1.87964 2.99737 29.8387
-2.03767 2.99374 29.8934
2.21264 3.19569 32.9367
2.07393 3.15803 32.5723
2.01537 3.1564 32.5569
1.94323 3.15294 32.406
1.58518 3.11044 32.0508
1.52173 3.10799 31.9678
1.46435 3.10637 31.9513
1.2817 3.09989 31.7685
1.22474 3.09827 31.7515
1.16782 3.09665 31.7343
1.11096 3.09503 31.717
1.05415 3.09341 31.6996
0.992613 3.09101 31.6163
0.320454 3.0723 31.4622
0.152518 3.06742 31.4046
0.0907896 3.06435 31.2538
-0.0177457 2.96605 30.2864
-0.0715543 2.96449 30.2668
-0.125299 2.96292 30.2471
-0.232595 2.95979 30.2073
-0.286145 2.95822 30.1873
-0.393046 2.9551 30.1469
-0.446395 2.95353 30.1266
-0.499676 2.95197 30.1061
-0.552889 2.95041 30.0855
-0.659106 2.94729 30.0441
-0.817902 2.94262 29.9811
-0.974662 2.93888 30.041
-1.87848 2.94212 29.8376
-2.1398 2.93525 29.8446
-2.24277 2.93214 29.7966
-2.40108 2.92834 29.8492
-2.51161 2.93974 29.827
-2.56278 2.93819 29.8023
-2.62196 2.95114 29.8043
-2.67299 2.94958 29.7794
2.2134 3.13619 32.9376
2.01614 3.0975 32.5577
1.944 3.09428 32.4067
1.88575 3.09266 32.391
1.46515 3.04836 31.9517
1.2825 3.04215 31.7689
1.22554 3.04054 31.7518
1.16863 3.03894 31.7346
1.11178 3.03733 31.7173
1.05497 3.03572 31.6999
0.993434 3.03345 31.6165
0.932184 3.03118 31.5331
0.377424 3.01644 31.4812
0.32133 3.01483 31.4622
0.15341 3.01001 31.4044
0.0916836 3.00717 31.2536
-0.0168221 2.91051 30.286
-0.0706251 2.90897 30.2664
-0.124364 2.90742 30.2466
-0.285193 2.90279 30.1868
-0.392081 2.8997 30.1464
-0.445424 2.89816 30.126
-0.498699 2.89662 30.1055
-0.551906 2.89508 30.0849
-0.65811 2.892 30.0434
-1.51197 2.89686 29.8726
-1.66955 2.89301 29.9291
-1.7736 2.88994 29.883
-1.87732 2.88688 29.8365
-2.13859 2.87993 29.8434
-2.24155 2.87688 29.7953
2.21415 3.07669 32.9385
1.94476 3.03561 32.4074
1.88652 3.03401 32.3917
1.75735 3.02944 32.2252
1.65049 2.99636 32.1346
1.58677 2.99415 32.0518
1.52332 2.99195 31.9687
1.46594 2.99036 31.9521
1.2833 2.9844 31.7692
0.315409 2.95633 31.3307
0.154301 2.9526 31.4043
0.092577 2.95 31.2534
-0.284241 2.84735 30.1863
-0.391117 2.84431 30.1459
-0.444454 2.84279 30.1255
-0.497723 2.84127 30.105
-0.550923 2.83976 30.0844
-0.657115 2.83672 30.0428
-0.710105 2.83521 30.0219
-0.815871 2.83218 29.9797
-0.972582 2.82817 30.0395
-1.14405 2.85223 30.0275
-1.19669 2.85071 30.0055
-1.24925 2.8492 29.9835
-1.35413 2.84618 29.9391
-1.51087 2.84165 29.8717
-1.66842 2.83767 29.9281
-1.77246 2.83465 29.882
-1.87616 2.83165 29.8354
2.14117 3.01428 32.7863
2.07623 2.9813 32.5747
2.01768 2.9797 32.5592
1.94553 2.97695 32.4081
1.88729 2.97535 32.3924
1.58152 2.93551 31.9857
1.52411 2.93393 31.9692
1.46674 2.93235 31.9526
1.28411 2.92666 31.7696
1.22716 2.92508 31.7525
1.17025 2.92351 31.7352
1.1134 2.92193 31.7179
1.0566 2.92035 31.7004
0.995075 2.91833 31.617
0.933829 2.91631 31.5335
0.379166 2.90147 31.4811
0.323082 2.8999 31.4621
0.14908 2.89439 31.2728
0.0934697 2.89283 31.2533
-0.0149769 2.79945 30.2853
-0.0687686 2.79794 30.2656
-0.28329 2.79193 30.1859
-0.390154 2.78893 30.1454
-0.443485 2.78743 30.125
-0.496747 2.78593 30.1044
-0.549941 2.78443 30.0838
-0.65612 2.78145 30.0422
-0.709103 2.77995 30.0212
-0.814856 2.77698 29.979
-1.66729 2.78233 29.9271
-1.77131 2.77937 29.8809
-1.8232 2.77789 29.8577
-1.875 2.77642 29.8343
-2.0299 2.772 29.7636
-2.13618 2.76932 29.841
-2.18768 2.76785 29.8169
-2.24682 2.7807 29.8195
-2.41321 2.79093 29.8993
-2.51585 2.78798 29.8499
-2.56704 2.7865 29.8251
-2.61813 2.78503 29.8002
-2.66913 2.78357 29.7752
2.01844 2.9208 32.56
1.9463 2.91828 32.4089
1.88806 2.9167 32.3931
1.46753 2.87434 31.9531
1.28491 2.86891 31.77
1.22796 2.86735 31.7528
1.17106 2.86579 31.7356
1.05742 2.86267 31.7007
0.995894 2.86077 31.6172
0.934651 2.85888 31.5337
0.380035 2.84399 31.4811
0.320554 2.84214 31.3963
0.149967 2.83721 31.2727
0.0943616 2.83567 31.2532
-0.0140553 2.74392 30.285
-0.126367 2.74074 30.1217
-0.282339 2.7365 30.1854
-0.389191 2.73354 30.1449
-0.442516 2.73207 30.1244
-0.54896 2.72912 30.0832
-1.35198 2.73562 29.9374
-1.4043 2.73416 29.9149
-1.50868 2.73125 29.8698
-1.66617 2.727 29.9261
-1.77017 2.72409 29.8799
-1.82205 2.72264 29.8566
-1.87384 2.72119 29.8332
-1.92555 2.71975 29.8097
-2.02872 2.71686 29.7625
2.21642 2.89818 32.9413
1.94706 2.85961 32.4096
1.88883 2.85804 32.3938
1.75966 2.85423 32.2271
1.70618 2.83789 32.1818
1.65285 2.82155 32.1363
1.5831 2.81945 31.9868
1.52569 2.81789 31.9702
1.46833 2.81634 31.9535
1.28571 2.81117 31.7704
1.22877 2.80962 31.7532
0.321427 2.78479 31.3963
0.150853 2.78003 31.2726
0.0952528 2.7785 31.253
-0.0131344 2.68839 30.2846
-0.125438 2.68546 30.1213
-0.281389 2.68108 30.185
-0.441548 2.67671 30.1239
-0.547979 2.6738 30.0827
-0.601091 2.67235 30.0619
-0.654132 2.67091 30.041
-0.707103 2.66946 30.02
-0.812829 2.66657 29.9777
-0.865584 2.66513 29.9564
-0.970872 2.66226 29.9134
-1.1342 2.67197 29.9986
-1.24607 2.68322 29.9811
-1.29853 2.68179 29.9588
-1.35091 2.68035 29.9365
-1.40321 2.67892 29.9141
-1.50758 2.67606 29.8689
-1.66504 2.67168 29.9252
-1.76903 2.66882 29.8789
-1.8209 2.6674 29.8556
-1.87269 2.66598 29.8322
-2.51334 2.67716 29.8473
-2.5645 2.67575 29.8225
2.14343 2.83648 32.789
2.07852 2.80456 32.5771
2.01997 2.80299 32.5616
1.94783 2.80095 32.4104
1.58388 2.76141 31.9873
1.52648 2.75987 31.9707
1.46912 2.75833 31.954
1.28651 2.75343 31.7708
1.22957 2.7519 31.7536
1.17268 2.75036 31.7363
0.99753 2.74566 31.6178
0.936292 2.74402 31.5342
0.322298 2.72744 31.3963
0.151738 2.72284 31.2725
0.0961432 2.72134 31.2529
-0.0122142 2.63287 30.2843
-0.12451 2.63019 30.1209
-0.28044 2.62566 30.1846
-0.440581 2.62136 30.1235
-0.547 2.61849 30.0822
-0.600105 2.61707 30.0613
-0.706104 2.61422 30.0194
-1.66392 2.61636 29.9242
-1.76789 2.61356 29.8779
-1.81975 2.61216 29.8545
-1.87153 2.61077 29.8311
-1.92322 2.60937 29.8076
-2.02635 2.6066 29.7602
-2.18404 2.60207 29.8133
-2.30232 2.62763 29.8183
-2.40484 2.62486 29.7694
-2.51208 2.62176 29.846
-2.56324 2.62038 29.8211
-2.6143 2.619 29.7962
-2.66527 2.61762 29.7711
2.21793 2.77917 32.9432
2.02074 2.74408 32.5624
1.94859 2.74228 32.4112
1.89036 2.74073 32.3953
1.28731 2.69568 31.7712
1.23037 2.69417 31.754
1.17349 2.69265 31.7366
0.998347 2.6881 31.6181
0.937111 2.68659 31.5344
0.323168 2.67009 31.3963
0.152623 2.66567 31.2724
0.0970329 2.66418 31.2528
-0.0112948 2.57735 30.284
-0.123582 2.57492 30.1206
-0.281574 2.57046 30.1223
-0.439614 2.56601 30.123
-1.24395 2.5726 29.9795
-1.2964 2.57121 29.9572
-1.34876 2.56983 29.9349
-1.40105 2.56845 29.9124
-1.50539 2.56569 29.8671
-1.6628 2.56104 29.9233
-1.76675 2.5583 29.8769
-1.81861 2.55693 29.8535
-1.87038 2.55556 29.8301
-1.92206 2.5542 29.8065
-2.56198 2.56502 29.8198
-2.61303 2.56367 29.7948
-2.66399 2.56232 29.7697
2.21868 2.71966 32.9442
1.94935 2.68361 32.4119
1.89112 2.68207 32.3961
1.81988 2.68053 32.2453
1.76197 2.67901 32.2292
1.7041 2.67748 32.2129
1.65074 2.66135 32.1673
1.58545 2.64534 31.9884
1.52805 2.64383 31.9718
1.4707 2.64232 31.9551
1.28811 2.63794 31.7716
1.23117 2.63644 31.7544
1.17429 2.63494 31.737
0.324038 2.61275 31.3963
0.264861 2.61142 31.3112
0.153506 2.60849 31.2723
0.0979217 2.60703 31.2527
-0.0103762 2.52184 30.2837
-0.122655 2.51965 30.1202
-0.280628 2.51516 30.1219
-0.438649 2.51066 30.1225
-0.598135 2.50651 30.0603
-0.704108 2.50375 30.0182
-0.756987 2.50238 29.9971
-0.809794 2.501 29.9758
-0.862528 2.49963 29.9544
-0.974302 2.51084 29.9376
-1.13779 2.52003 30.023
-1.24289 2.5173 29.9787
-1.29533 2.51593 29.9564
-1.34769 2.51457 29.9341
-1.39997 2.51322 29.9116
-1.5043 2.51051 29.8663
-1.66167 2.50574 29.9223
-2.40237 2.51439 29.7669
-2.56071 2.50967 29.8186
-2.66271 2.50703 29.7684
2.14569 2.65867 32.7918
2.0808 2.6278 32.5797
2.02226 2.62627 32.5641
1.95012 2.62494 32.4127
1.89189 2.62342 32.3969
1.52884 2.58581 31.9724
1.46574 2.58449 31.8893
1.40291 2.58318 31.8062
1.2889 2.5802 31.772
1.23198 2.57871 31.7548
1.1751 2.57723 31.7374
0.999978 2.57299 31.6187
0.938748 2.57173 31.5349
0.324907 2.55541 31.3963
0.154389 2.55132 31.2723
0.0988097 2.54987 31.2526
-0.00945829 2.46633 30.2835
-0.121729 2.46439 30.1199
-0.279683 2.45985 30.1215
-0.597151 2.45123 30.0598
-1.39889 2.458 29.9107
-1.5032 2.45534 29.8654
-1.65906 2.45138 29.7966
-1.81631 2.44648 29.8515
-1.86807 2.44517 29.828
-1.91973 2.44386 29.8044
-2.02281 2.44126 29.7569
-2.18814 2.45036 29.8367
-2.29868 2.46176 29.8148
-2.34996 2.46046 29.7903
-2.40114 2.45917 29.7657
-2.55945 2.45432 29.8173
2.01608 2.56757 32.4971
1.95088 2.56627 32.4135
1.89265 2.56476 32.3976
1.82141 2.56369 32.2467
1.4037 2.5254 31.8067
1.34668 2.52393 31.7897
1.2897 2.52246 31.7725
1.23278 2.52099 31.7552
1.1759 2.51952 31.7378
1.00079 2.51544 31.619
0.939565 2.5143 31.5352
0.325775 2.49807 31.3963
0.266605 2.497 31.3112
0.155271 2.49414 31.2722
-0.00854124 2.41082 30.2832
-0.120804 2.40913 30.1196
-0.17421 2.40778 30.0996
-0.280825 2.40508 30.0593
-1.1357 2.40934 30.0216
-1.29321 2.40539 29.9549
-1.39782 2.40278 29.9099
-1.45 2.40148 29.8873
-1.50211 2.40018 29.8645
-1.65794 2.3963 29.7957
-1.81517 2.39127 29.8505
-1.91857 2.38871 29.8034
-2.55819 2.39899 29.816
-2.66015 2.39647 29.7658
2.2284 2.54085 33.0166
1.95164 2.50759 32.4144
1.89342 2.5061 32.3984
1.82217 2.50526 32.2475
1.76427 2.50378 32.2313
1.70641 2.50229 32.215
1.5878 2.47124 31.9902
1.53041 2.46977 31.9735
1.46731 2.46869 31.8904
1.40449 2.46763 31.8072
1.34747 2.46617 31.7901
1.2905 2.46472 31.7729
1.23358 2.46326 31.7556
1.1767 2.46181 31.7382
1.00161 2.45789 31.6193
0.326642 2.44073 31.3964
0.267476 2.43979 31.3112
0.156152 2.43697 31.2722
0.100583 2.43557 31.2525
-0.0102539 2.35593 30.221
-0.119879 2.35387 30.1193
-0.17328 2.35254 30.0993
-0.279883 2.34989 30.0589
-0.333085 2.34857 30.0385
-0.439284 2.34593 29.9975
-0.595186 2.3407 30.0587
-0.70112 2.33808 30.0166
-0.753979 2.33678 29.9954
-0.813174 2.34927 30.0004
-0.865934 2.34797 29.9789
-0.977778 2.35916 29.962
-1.03036 2.35787 29.9402
-1.13498 2.35464 29.9586
-1.29214 2.35013 29.9542
-1.39674 2.34757 29.9091
-1.44892 2.34629 29.8865
-1.50102 2.34502 29.8637
-1.55303 2.34375 29.8408
-2.29626 2.35122 29.8125
-2.34752 2.34998 29.7879
-2.39869 2.34875 29.7633
-2.55693 2.34366 29.8147
-2.65887 2.34121 29.7645
2.22168 2.4816 32.9482
2.14793 2.48084 32.7947
2.08308 2.45103 32.5824
2.0176 2.44997 32.4989
1.9524 2.44892 32.4152
1.89418 2.44744 32.3992
1.5312 2.41174 31.9741
1.4681 2.4108 31.891
1.40527 2.40986 31.8077
1.34826 2.40842 31.7906
1.29129 2.40698 31.7734
1.23437 2.40554 31.7561
1.17751 2.4041 31.7386
1.00242 2.40034 31.6196
0.941196 2.39945 31.5358
0.327508 2.38339 31.3964
0.268346 2.38258 31.3113
0.157032 2.37981 31.2722
0.101469 2.37842 31.2525
-0.00933987 2.30053 30.2207
-0.118955 2.29862 30.119
-0.17235 2.29731 30.0989
-0.278942 2.2947 30.0585
-0.332137 2.2934 30.0382
-0.438325 2.29081 29.9971
-1.29108 2.29487 29.9534
-1.39566 2.29236 29.9083
-1.44784 2.29111 29.8857
-1.49993 2.28987 29.8629
-1.55194 2.28862 29.84
-1.65571 2.28615 29.7939
-1.81288 2.28086 29.8486
-1.91625 2.27841 29.8014
-1.9753 2.29101 29.8041
-2.03434 2.30361 29.8068
-2.08582 2.30239 29.7828
-2.29505 2.29596 29.8113
-2.3463 2.29475 29.7868
-2.39746 2.29355 29.7621
-2.44853 2.29235 29.7374
2.01141 2.39172 32.4319
1.95315 2.39024 32.416
1.89494 2.38877 32.4001
1.8237 2.38842 32.249
1.7658 2.38696 32.2328
1.34905 2.35066 31.7911
1.29209 2.34923 31.7739
1.23517 2.34781 31.7566
1.17831 2.34639 31.7391
0.99844 2.34343 31.5541
0.942011 2.34203 31.5362
0.32496 2.32675 31.3307
0.269215 2.32538 31.3113
-0.0110584 2.24595 30.1585
-0.0645776 2.24466 30.1387
-0.118032 2.24337 30.1187
-0.171421 2.24208 30.0986
-0.97575 2.24877 29.9608
-1.02832 2.24753 29.9389
-1.13323 2.24505 29.895
-1.29002 2.23962 29.9527
-1.39459 2.23716 29.9076
-1.44675 2.23594 29.8849
-1.49884 2.23472 29.862
-1.55084 2.2335 29.8391
-1.6546 2.23108 29.793
-1.81174 2.22567 29.8477
-2.34509 2.23953 29.7856
-2.39623 2.23835 29.761
-2.44729 2.23718 29.7362
-2.54913 2.23485 29.6863
-2.65631 2.23069 29.7619
1.88905 2.33077 32.3334
1.82446 2.32999 32.2498
1.76656 2.32854 32.2335
1.70871 2.3271 32.2171
1.59014 2.29713 31.9921
1.53276 2.2957 31.9753
1.46967 2.295 31.8921
1.40685 2.29432 31.8088
1.34984 2.29291 31.7917
1.29288 2.29149 31.7744
1.23597 2.29009 31.757
1.17911 2.28868 31.7395
0.99925 2.28599 31.5545
0.325823 2.26953 31.3308
0.270083 2.26818 31.3114
0.15879 2.26548 31.2722
0.103237 2.26414 31.2524
-0.0101474 2.19067 30.1583
-0.0636611 2.18939 30.1384
-0.11711 2.18812 30.1184
-0.170494 2.18686 30.0983
-0.277062 2.18434 30.0578
-0.330246 2.18308 30.0374
-0.436409 2.18058 29.9963
-0.59369 2.17589 29.9955
-0.763741 2.1985 30.0465
-0.869387 2.19603 30.0036
-0.922099 2.1948 29.9819
-0.974736 2.19358 29.9602
-1.0273 2.19236 29.9383
-1.1322 2.18993 29.8943
-1.28896 2.18437 29.952
-1.39352 2.18197 29.9068
-1.44567 2.18077 29.8841
-2.08348 2.19208 29.7807
-2.18613 2.18976 29.7323
-2.29264 2.18546 29.8091
-2.34387 2.18431 29.7845
-2.39501 2.18317 29.7598
-2.44606 2.18203 29.735
-2.54788 2.17976 29.6851
2.15017 2.303 32.7977
2.01987 2.27357 32.5015
1.95467 2.27289 32.4178
1.88981 2.27222 32.3342
1.82522 2.27156 32.2506
1.47045 2.23711 31.8927
1.40763 2.23655 31.8094
1.35063 2.23515 31.7922
1.29367 2.23375 31.7749
1.23677 2.23236 31.7575
1.17477 2.23183 31.6741
1.00006 2.22855 31.5548
0.943637 2.22718 31.5368
0.326685 2.21231 31.3309
0.27095 2.21098 31.3114
0.159667 2.20832 31.2722
0.104119 2.207 31.2524
-0.00923733 2.13538 30.1581
-0.0627455 2.13413 30.1382
-0.116189 2.13288 30.1182
-0.169567 2.13164 30.0981
-0.222878 2.1304 30.0778
-0.276123 2.12916 30.0575
-0.329301 2.12792 30.0371
-0.435452 2.12547 29.9959
-1.13116 2.13482 29.8937
-1.28791 2.12913 29.9513
-1.39244 2.12678 29.9061
-1.44459 2.12561 29.8833
-1.54864 2.12328 29.8375
-1.65237 2.12097 29.7913
-1.97182 2.12554 29.8012
-2.03087 2.13806 29.8038
-2.08231 2.13693 29.7797
-2.18495 2.13468 29.7313
-2.34265 2.1291 29.7834
-2.44483 2.12688 29.7338
2.01367 2.21565 32.4346
1.95543 2.21421 32.4186
1.89056 2.21367 32.3351
1.82597 2.21314 32.2514
1.76809 2.21172 32.2351
1.35142 2.17739 31.7927
1.29446 2.17601 31.7754
1.23756 2.17464 31.758
1.17557 2.17423 31.6745
1.00087 2.17112 31.5552
0.944449 2.16976 31.5372
-0.00832813 2.0801 30.1579
-0.0618307 2.07887 30.138
-0.86739 2.08557 30.0025
-0.920089 2.08439 29.9808
-0.972713 2.08321 29.959
-1.02526 2.08204 29.9371
-1.13013 2.07972 29.893
-1.39137 2.07159 29.9053
-1.44351 2.07045 29.8826
-1.54755 2.06817 29.8367
-2.34144 2.0739 29.7823
-2.44359 2.07174 29.7327
-2.54538 2.06959 29.6827
2.15166 2.18443 32.7998
1.89132 2.15511 32.3359
1.82673 2.15471 32.2522
1.76885 2.1533 32.2359
1.64541 2.13847 32.0397
1.58795 2.13708 32.0229
1.5351 2.12163 31.9772
1.47201 2.12131 31.8939
1.4092 2.121 31.8105
1.3522 2.11964 31.7933
1.29525 2.11827 31.776
1.23835 2.11691 31.7585
1.17637 2.11663 31.675
1.00167 2.11368 31.5556
0.94526 2.11234 31.5376
0.328406 2.09787 31.3311
0.272682 2.09658 31.3116
0.217019 2.09529 31.292
0.161419 2.094 31.2723
0.105882 2.09272 31.2524
-0.00741982 2.02482 30.1577
-0.0609168 2.02361 30.1377
-0.114349 2.0224 30.1177
-0.167715 2.0212 30.0975
-0.221015 2.02001 30.0773
-0.274249 2.01881 30.0569
-0.327414 2.01762 30.0364
-0.380512 2.01644 30.0158
-0.433541 2.01526 29.9951
-0.486501 2.01408 29.9743
-0.598407 2.0252 29.9585
-0.760787 2.03266 30.0451
-0.866393 2.03034 30.002
-0.919085 2.02919 29.9803
-0.971702 2.02804 29.9585
-1.02424 2.02689 29.9366
-1.1291 2.02462 29.8924
-1.18141 2.02348 29.8702
-1.97703 2.02881 29.8258
-2.07998 2.02666 29.7777
-2.18258 2.02452 29.7292
-2.44236 2.0166 29.7316
-2.54413 2.01452 29.6815
2.1524 2.12515 32.8009
2.02213 2.09715 32.5044
1.95693 2.09685 32.4205
1.89207 2.09656 32.3368
1.47279 2.06342 31.8946
1.40998 2.06323 31.8111
1.35299 2.06188 31.7939
1.29604 2.06053 31.7765
1.23915 2.05919 31.7591
1.17716 2.05903 31.6755
1.11546 2.05889 31.5918
1.00248 2.05624 31.556
0.329266 2.04066 31.3312
0.273546 2.03938 31.3117
0.217888 2.03812 31.2921
0.162293 2.03685 31.2723
-0.00651243 1.96954 30.1575
-0.0600039 1.96835 30.1375
-0.166791 1.96599 30.0973
-0.220085 1.96482 30.077
-0.273313 1.96365 30.0566
-0.326472 1.96248 30.0361
-1.12807 1.96952 29.8918
-1.18037 1.96841 29.8695
-1.28475 1.96621 29.8247
-1.44135 1.96015 29.8811
-1.54536 1.95798 29.8351
-1.59724 1.95691 29.812
-1.64904 1.95583 29.7888
-1.70076 1.95477 29.7654
-1.81856 1.97959 29.771
-1.97588 1.97363 29.8249
-2.07882 1.97153 29.7768
-2.13015 1.97049 29.7525
-2.1814 1.96945 29.7282
2.01593 2.03956 32.4374
1.95769 2.03817 32.4214
1.89283 2.038 32.3377
1.82824 2.03785 32.2539
1.77036 2.03647 32.2375
1.35378 2.00413 31.7945
1.29683 2.00279 31.7771
1.23994 2.00146 31.7596
1.17796 2.00144 31.676
1.11625 2.00142 31.5923
1.00328 1.9988 31.5565
-0.0590919 1.9131 30.1374
-0.917081 1.9188 29.9793
-0.969684 1.9177 29.9574
-1.02221 1.9166 29.9354
-1.12704 1.91443 29.8912
-1.17934 1.91335 29.8689
-1.2837 1.9112 29.8241
-1.44028 1.905 29.8804
-2.07766 1.91641 29.7758
-2.12898 1.9154 29.7515
-2.18022 1.91439 29.7272
-2.4399 1.90635 29.7293
-2.49082 1.90537 29.7043
-2.54966 1.9179 29.7057
-2.65921 1.92945 29.6816
1.89358 1.97944 32.3386
1.829 1.97942 32.2547
1.77112 1.97805 32.2383
1.64771 1.96414 32.0419
1.59025 1.96279 32.0251
1.53744 1.94756 31.9793
1.47435 1.94762 31.8959
1.41155 1.94769 31.8123
1.35456 1.94637 31.7951
1.29762 1.94505 31.7777
1.24073 1.94374 31.7601
1.17875 1.94384 31.6765
1.11705 1.94395 31.5928
1.00409 1.94137 31.5569
0.330981 1.92623 31.3315
0.275272 1.925 31.3119
0.219624 1.92377 31.2923
0.164039 1.92255 31.2725
0.102726 1.93511 31.2806
0.0472176 1.93389 31.2605
-0.00470047 1.859 30.1572
-0.0581808 1.85785 30.1372
-0.164945 1.85558 30.0968
-0.218228 1.85445 30.0765
-0.324592 1.8522 30.0355
-0.377671 1.85108 30.0149
-0.430682 1.84997 29.9941
-0.483624 1.84887 29.9733
-0.601724 1.87326 29.9834
-0.654546 1.87216 29.9622
-0.759972 1.86999 29.9195
-0.91608 1.86361 29.9788
-1.0212 1.86147 29.9349
-1.07364 1.8604 29.9128
-1.12601 1.85934 29.8906
-1.1783 1.85829 29.8683
-1.97359 1.86328 29.8231
-2.07649 1.8613 29.7748
-2.12781 1.86032 29.7506
-2.17904 1.85934 29.7262
-2.23018 1.85837 29.7017
-2.43868 1.85124 29.7282
2.15463 1.94727 32.8042
2.08152 1.9487 32.6508
2.02438 1.92072 32.5073
1.95919 1.9208 32.4233
1.89433 1.92088 32.3395
1.82975 1.92098 32.2556
1.47513 1.88972 31.8966
1.41233 1.88992 31.813
1.35534 1.88861 31.7957
1.29841 1.88731 31.7783
1.24152 1.88602 31.7607
1.17954 1.88624 31.677
1.11784 1.88648 31.5933
1.00489 1.88393 31.5573
0.331837 1.86902 31.3317
0.276133 1.86781 31.3121
-0.00379595 1.80373 30.1571
-0.0572708 1.80261 30.137
-0.164024 1.80038 30.0966
-0.217301 1.79927 30.0763
-0.323653 1.79707 30.0353
-0.91508 1.80843 29.9783
-1.02018 1.80633 29.9344
-1.07262 1.8053 29.9123
-1.12498 1.80426 29.89
-1.17727 1.80323 29.8677
-1.2816 1.80119 29.8228
-1.43813 1.79474 29.879
-1.54209 1.79273 29.8329
-1.6011 1.80507 29.836
-1.65292 1.80408 29.8127
-1.7119 1.81641 29.8156
-1.81521 1.81445 29.7684
-1.97245 1.80811 29.8222
-2.07533 1.80619 29.7739
-2.12664 1.80524 29.7496
-2.17786 1.80429 29.7252
-2.229 1.80335 29.7007
1.95994 1.86211 32.4242
1.89508 1.86232 32.3404
1.83051 1.86255 32.2565
1.77263 1.86121 32.2401
1.18033 1.82864 31.6776
1.11864 1.82901 31.5938
1.00569 1.8265 31.5578
-0.652618 1.76197 29.9614
-0.758019 1.75989 29.9186
-0.914081 1.75325 29.9778
-1.01917 1.75121 29.9339
-1.0716 1.75019 29.9117
-1.12396 1.74918 29.8895
-1.17623 1.74818 29.8672
-1.28055 1.74619 29.8222
-2.07417 1.75109 29.773
-2.12547 1.75017 29.7487
-2.17669 1.74925 29.7243
-2.22781 1.74834 29.6997
-2.32979 1.74653 29.6504
-2.43622 1.74103 29.7261
-2.49511 1.75349 29.7275
-2.54595 1.7526 29.7023
-2.65547 1.76418 29.6781
1.89583 1.80376 32.3414
1.83126 1.80411 32.2574
1.77339 1.80279 32.2409
1.70305 1.80484 32.0899
1.65 1.78981 32.0442
1.59255 1.78851 32.0274
1.53515 1.78721 32.0104
1.47668 1.77392 31.8979
1.41388 1.77437 31.8143
1.35691 1.7731 31.797
1.29998 1.77183 31.7795
1.2431 1.77057 31.7619
1.18113 1.77105 31.6781
1.11943 1.77154 31.5943
1.00649 1.76906 31.5583
0.389303 1.75579 31.3515
0.333547 1.75461 31.332
0.277852 1.75344 31.3124
0.22222 1.75227 31.2927
0.160892 1.76473 31.3008
0.105336 1.76357 31.2809
0.0412283 1.7778 31.2229
-0.00198992 1.6932 30.1568
-0.0579539 1.69398 30.0751
-0.21545 1.68892 30.0759
-0.37484 1.68576 30.014
-0.486895 1.69683 29.9984
-0.545979 1.70894 30.0035
-0.598853 1.70791 29.9824
-0.651656 1.70688 29.9611
-0.757044 1.70485 29.9182
-0.913083 1.69807 29.9774
-1.01816 1.69608 29.9334
-1.07058 1.69509 29.9112
-1.7097 1.70623 29.8141
-1.81298 1.70438 29.7668
-1.8645 1.70347 29.7431
-1.97016 1.69779 29.8205
-2.12431 1.6951 29.7478
-2.17551 1.69421 29.7233
-2.22663 1.69333 29.6988
-2.32859 1.69159 29.6494
2.02663 1.74427 32.5103
1.96144 1.74473 32.4262
1.89658 1.7452 32.3423
1.83201 1.74568 32.2583
1.47746 1.71602 31.8987
1.41466 1.7166 31.815
1.35769 1.71534 31.7976
1.30076 1.71409 31.7801
1.24389 1.71285 31.7625
1.18191 1.71345 31.6787
1.12023 1.71407 31.5948
1.00729 1.71163 31.5588
0.390151 1.69856 31.3518
0.3344 1.6974 31.3322
-0.057048 1.63884 30.0749
-0.218883 1.63768 29.9524
-0.912087 1.6429 29.9769
-1.01715 1.64096 29.9329
-1.06957 1.64 29.9107
-1.12191 1.63904 29.8884
-1.17417 1.63809 29.866
-1.27846 1.63621 29.821
-1.44156 1.64455 29.8408
-1.60501 1.65296 29.8602
-1.70861 1.65115 29.8133
-1.81187 1.64936 29.766
-1.86337 1.64847 29.7422
-1.96902 1.64264 29.8196
-2.12314 1.64004 29.7468
-2.17434 1.63918 29.7224
-2.65298 1.65404 29.6759
2.02041 1.68736 32.4434
1.96218 1.68604 32.4272
1.89733 1.68663 32.3433
1.83276 1.68724 32.2592
1.77489 1.68595 32.2427
1.70456 1.68847 32.0915
1.1827 1.65585 31.6793
1.12102 1.6566 31.5954
1.00809 1.65419 31.5593
0.0457186 1.66161 31.289
-0.596944 1.59769 29.9817
-0.649734 1.59672 29.9604
-0.755096 1.59478 29.9175
-0.911091 1.58774 29.9765
-1.01614 1.58585 29.9324
-1.06855 1.58491 29.9102
-1.12088 1.58398 29.8879
-1.17314 1.58306 29.8655
-1.22531 1.58214 29.843
-1.86225 1.59348 29.7414
-1.96499 1.59179 29.6935
-2.12198 1.58499 29.7459
-2.17316 1.58416 29.7214
-2.22426 1.58334 29.6969
-2.32619 1.58172 29.6474
-2.49946 1.60135 29.7509
-2.65173 1.59898 29.6748
1.89808 1.62807 32.3443
1.83351 1.6288 32.2602
1.77564 1.62752 32.2436
1.70531 1.63028 32.0924
1.64777 1.62902 32.0756
1.59028 1.62777 32.0587
1.53745 1.61296 32.0127
1.479 1.60022 31.9001
1.41621 1.60105 31.8164
1.35924 1.59983 31.799
1.24546 1.5974 31.7637
1.18349 1.59826 31.6799
1.12181 1.59913 31.5959
1.06532 1.59794 31.5779
1.00889 1.59676 31.5598
0.391844 1.58411 31.3523
0.336102 1.583 31.3327
0.280422 1.58189 31.313
0.219082 1.59424 31.3212
0.163477 1.59314 31.3013
0.107936 1.59204 31.2812
0.0465842 1.6044 31.2891
-0.0552393 1.52858 30.0747
-0.217043 1.52777 29.952
-0.372018 1.52046 30.0133
-0.490209 1.54451 30.0238
-0.543136 1.54355 30.0026
-0.595991 1.54259 29.9814
-0.648775 1.54164 29.9601
-0.754124 1.53975 29.9171
-0.806689 1.53882 29.8955
-0.910097 1.53257 29.9761
-1.01513 1.53074 29.9319
-1.70642 1.541 29.8119
-1.75807 1.54016 29.7882
-1.80965 1.53933 29.7645
-1.86114 1.5385 29.7407
-1.96385 1.53686 29.6927
-2.12081 1.52994 29.745
-2.22308 1.52836 29.6959
2.02886 1.56781 32.5135
1.96367 1.56865 32.4293
1.89883 1.5695 32.3453
1.83425 1.57036 32.2611
1.41698 1.54328 31.8171
1.36002 1.54207 31.7996
1.18428 1.54066 31.6805
1.1226 1.54166 31.5965
1.06612 1.54049 31.5785
1.00969 1.53933 31.5603
-0.0543366 1.47346 30.0746
-0.110002 1.47475 29.9927
-0.216124 1.47281 29.9519
-0.753153 1.48473 29.9168
-0.805711 1.48382 29.8951
-0.910603 1.48202 29.8514
-1.06652 1.47474 29.9092
-1.11884 1.47387 29.8869
-1.17108 1.473 29.8645
-1.22324 1.47213 29.8419
-1.27533 1.47128 29.8192
-1.32733 1.47043 29.7965
-1.44505 1.49472 29.8028
-1.60177 1.48758 29.8582
-1.70532 1.48593 29.8112
-1.75697 1.48512 29.7875
-1.80854 1.48432 29.7637
-1.86002 1.48352 29.7399
-1.96272 1.48194 29.6919
-2.49703 1.49106 29.7489
-2.5986 1.4896 29.6981
-2.64633 1.49125 29.6097
1.96442 1.50996 32.4303
1.89957 1.51093 32.3463
1.835 1.51192 32.2621
1.77714 1.51067 32.2455
1.70681 1.51391 32.0942
0.0483122 1.49 31.2894
-0.541245 1.4333 30.0021
-0.64686 1.43149 29.9595
-0.699558 1.43059 29.938
-0.752183 1.4297 29.9164
-0.804735 1.42882 29.8947
-0.909614 1.42707 29.851
-1.06551 1.41967 29.9088
-1.75587 1.43009 29.7868
-1.80743 1.42932 29.763
-1.8589 1.42855 29.7391
-1.96159 1.42703 29.6911
-2.11849 1.41986 29.7433
-2.22072 1.4184 29.6941
-2.2717 1.41768 29.6694
-2.33042 1.42998 29.6708
-2.49582 1.43592 29.7479
-2.59737 1.43453 29.6971
-2.64801 1.43384 29.6716
1.89364 1.45471 32.2796
1.83575 1.45347 32.2631
1.77151 1.45459 32.1792
1.70756 1.45572 32.0951
1.65003 1.45451 32.0782
1.59254 1.4533 32.0612
1.53974 1.43871 32.0151
1.47553 1.42891 31.8359
1.41853 1.42773 31.8186
1.36157 1.42655 31.8011
1.18585 1.42547 31.6818
1.12417 1.42673 31.5977
1.0677 1.42559 31.5796
1.01128 1.42446 31.5614
0.388789 1.42575 31.3812
0.333011 1.42469 31.3616
0.277295 1.42364 31.3418
0.221641 1.4226 31.3219
0.166052 1.42156 31.3019
0.104686 1.43382 31.3099
0.0491745 1.4328 31.2896
-0.0525345 1.36322 30.0745
-0.108191 1.36476 29.9925
-0.161274 1.36383 29.9721
-0.21429 1.36291 29.9516
-0.267239 1.362 29.931
-0.378951 1.373 29.9153
-0.540302 1.37819 30.0019
-0.645904 1.37642 29.9592
-0.698596 1.37555 29.9377
-0.751214 1.37469 29.9161
-0.803759 1.37383 29.8944
-0.908625 1.37213 29.8506
-1.49479 1.38396 29.7785
-1.59962 1.37735 29.8569
-1.75477 1.37506 29.7861
-1.80632 1.37432 29.7623
-1.85779 1.37358 29.7384
-1.96046 1.37212 29.6903
-2.59614 1.37946 29.6961
-2.64385 1.3814 29.6076
2.09654 1.39012 32.6011
2.03108 1.39133 32.5168
1.9659 1.39256 32.4325
1.90106 1.39379 32.3483
1.83649 1.39503 32.2641
1.4193 1.36995 31.8193
1.36234 1.36879 31.8018
1.18663 1.36787 31.6824
1.12496 1.36926 31.5983
1.06849 1.36814 31.5802
1.01207 1.36703 31.562
-0.160364 1.30886 29.972
-0.697634 1.32051 29.9374
-0.750247 1.31967 29.9158
-0.802785 1.31884 29.8941
-0.907638 1.31719 29.8503
-1.168 1.30794 29.863
-1.22014 1.30716 29.8404
-1.33109 1.31845 29.8209
-1.4419 1.32976 29.801
-1.49373 1.329 29.7779
-1.59784 1.32488 29.7938
-1.75368 1.32004 29.7854
-1.85667 1.31862 29.7377
-1.90804 1.31791 29.7136
-1.95933 1.31722 29.6895
-2.48821 1.33103 29.6198
-2.59492 1.3244 29.6951
-2.64262 1.32648 29.6065
1.96664 1.33386 32.4335
1.9018 1.33521 32.3494
1.83723 1.33658 32.2651
1.77301 1.33795 32.1811
1.70905 1.33934 32.0969
0.161963 1.32037 31.3305
0.106397 1.31938 31.3103
0.0508956 1.3184 31.29
-0.538418 1.26796 30.0015
-0.696674 1.26548 29.9371
-0.74928 1.26466 29.9155
-0.801812 1.26385 29.8937
-0.854269 1.26305 29.8719
-0.906651 1.26226 29.8499
-1.06334 1.25993 29.7834
-1.75258 1.26503 29.7847
-1.85556 1.26366 29.7369
-1.90692 1.26299 29.7129
-1.9582 1.26232 29.6887
-2.00938 1.26166 29.6645
-2.11149 1.26037 29.6157
-2.2172 1.25352 29.6915
-2.27595 1.26574 29.693
-2.3347 1.27797 29.6943
-2.38556 1.27735 29.6693
-2.487 1.27613 29.6189
-2.59369 1.26935 29.6941
-2.6443 1.26876 29.6685
1.90254 1.27664 32.3505
1.83798 1.27814 32.2661
1.77375 1.27963 32.1821
1.7098 1.28115 32.0979
1.65228 1.27998 32.0809
1.47783 1.25553 31.8383
1.42083 1.2544 31.8209
1.36389 1.25328 31.8033
1.18819 1.25268 31.6838
1.12653 1.25432 31.5996
1.07006 1.25324 31.5814
1.01366 1.25217 31.5631
0.396895 1.2408 31.3541
0.33553 1.25294 31.3625
0.279829 1.25196 31.3427
0.218437 1.2641 31.3508
0.162811 1.26313 31.3307
0.10725 1.26216 31.3105
0.0517544 1.2612 31.2902
-0.0498399 1.19787 30.0744
-0.105482 1.19979 29.9923
-0.158549 1.19894 29.9718
-0.211548 1.19809 29.9513
-0.264479 1.19724 29.9306
-0.323332 1.20907 29.9357
-0.382207 1.22089 29.9407
-0.435023 1.22006 29.9197
-0.540443 1.21843 29.8774
-0.695715 1.21044 29.9369
-0.80084 1.20887 29.8934
-0.853291 1.2081 29.8715
-0.905666 1.20733 29.8496
-1.43981 1.21981 29.7999
-1.49162 1.21911 29.7767
-1.595 1.21774 29.73
-1.75149 1.21002 29.7841
-1.85445 1.20871 29.7362
-1.9058 1.20806 29.7122
-1.95707 1.20743 29.688
-2.00825 1.2068 29.6637
-2.4858 1.22123 29.6179
-2.59246 1.21431 29.6931
-2.64015 1.21666 29.6045
1.96812 1.21645 32.4358
1.90328 1.21806 32.3515
1.83872 1.21969 32.2672
1.77449 1.22131 32.1831
1.18382 1.19792 31.6183
1.12731 1.19685 31.6002
1.07085 1.19579 31.5821
1.01445 1.19473 31.5638
0.052612 1.20401 31.2904
-0.0514542 1.14565 30.0126
-0.104582 1.14481 29.9922
-0.157643 1.14398 29.9718
-0.694758 1.15542 29.9366
-0.79987 1.1539 29.8931
-0.852314 1.15315 29.8712
-0.904683 1.15241 29.8492
-0.956975 1.15167 29.8271
-1.06133 1.15023 29.7826
