-0.834205 4.89368 30.0575
-0.893633 4.90756 30.0637
-0.934001 4.87284 29.99
-1.86444 5.08741 31.2015
1.51513 4.9555 30.9826
1.45933 4.95349 30.9669
1.40358 4.95147 30.9511
1.2922 4.94741 30.9192
1.23658 4.94537 30.9031
1.12547 4.94126 30.8705
1.06999 4.93919 30.8541
0.90383 4.93296 30.804
0.733919 4.9225 30.6907
0.568995 4.91614 30.6386
0.40101 4.90558 30.5233
0.237392 4.8991 30.4692
0.0742896 4.89256 30.414
-0.0882814 4.88596 30.3579
-0.142351 4.88375 30.339
-0.250304 4.8793 30.3008
-1.62897 4.99672 31.0998
-1.86327 5.02969 31.2002
2.0616 5.1701 32.6884
1.98887 5.15867 32.5384
1.92477 5.11333 32.331
1.46017 4.89713 30.9668
1.40441 4.89512 30.951
1.29304 4.89108 30.9191
1.23743 4.88905 30.9029
1.07085 4.88292 30.8538
0.904704 4.87672 30.8037
0.730605 4.86236 30.6281
0.566022 4.85605 30.576
0.401922 4.84968 30.5228
0.347331 4.84754 30.5048
0.238319 4.84324 30.4686
0.183899 4.84108 30.4503
0.0752327 4.83675 30.4134
0.020988 4.83457 30.3947
-0.0873215 4.83019 30.3572
-0.141385 4.828 30.3382
-0.249327 4.82358 30.3
-0.303203 4.82137 30.2807
-0.357017 4.81914 30.2613
-0.410766 4.81691 30.2418
-0.46445 4.81468 30.2222
-0.518069 4.81244 30.2025
-0.571623 4.81019 30.1827
-0.625109 4.80793 30.1627
2.06239 5.11098 32.6888
0.239246 4.78738 30.468
0.184831 4.78524 30.4496
0.0761758 4.78094 30.4127
0.0219366 4.77878 30.394
-0.0863616 4.77443 30.3564
-0.140419 4.77225 30.3374
-0.248349 4.76787 30.2992
-0.29639 4.74961 30.2531
-0.35015 4.7474 30.2337
-0.403847 4.74519 30.2142
-0.457478 4.74298 30.1946
-0.511045 4.74076 30.1748
-0.558482 4.72247 30.1283
-0.624089 4.75235 30.1618
-0.677502 4.75011 30.1417
-0.832043 4.72347 29.9926
-0.879719 4.70148 29.8847
-0.938798 4.71519 29.8904
-1.69577 4.91301 31.1324
-1.86093 4.91428 31.1975
2.06318 5.05186 32.6893
1.51762 4.7864 30.9823
1.46183 4.78442 30.9666
1.40058 4.77856 30.8886
1.23394 4.77257 30.8404
1.06772 4.76651 30.7911
0.89739 4.75655 30.6786
0.73237 4.75038 30.6273
0.567816 4.74416 30.575
0.513071 4.74207 30.5574
0.403744 4.73787 30.5217
0.349164 4.73576 30.5037
0.240173 4.73153 30.4674
0.185763 4.7294 30.449
0.131412 4.72727 30.4306
0.0771187 4.72513 30.412
-1.64015 4.85789 31.1537
-1.69463 4.85547 31.1312
2.1962 5.04416 32.9837
1.99123 4.982 32.5396
1.92716 4.93768 32.3319
1.06371 4.70659 30.7287
1.00851 4.70458 30.712
0.898259 4.70053 30.6783
0.843206 4.69849 30.6613
0.733252 4.6944 30.6269
0.678353 4.69234 30.6096
0.623506 4.69028 30.5921
0.568712 4.68822 30.5746
0.513972 4.68614 30.5569
0.404656 4.68198 30.5212
0.350081 4.67988 30.5031
0.295562 4.67779 30.485
-0.0288242 4.52842 29.4932
-0.0922955 4.55731 29.5249
-0.191861 4.53761 29.4619
-0.347174 4.50912 29.2619
-0.504537 4.49945 29.1454
-0.622047 4.64121 30.1599
-0.676784 4.63536 30.0781
1.06457 4.65053 30.7284
1.00937 4.64853 30.7117
0.899128 4.6445 30.678
0.844079 4.64248 30.661
0.734135 4.63842 30.6266
0.498165 4.53231 29.8439
0.444738 4.53027 29.8261
0.391365 4.52823 29.8082
0.338048 4.52619 29.7903
0.231584 4.52209 29.754
-0.185329 4.46792 29.4358
-0.346174 4.45517 29.261
-0.398146 4.45307 29.2416
-0.450054 4.45096 29.2222
-0.501897 4.44885 29.2026
2.06554 4.8745 32.6906
1.57172 4.63524 31.0249
1.39757 4.60629 30.8261
1.23129 4.60041 30.7776
1.17596 4.59844 30.7613
1.06543 4.59448 30.7282
1.01023 4.59248 30.7115
0.828394 4.53414 30.2398
0.76996 4.52875 30.1622
0.711788 4.52337 30.0845
0.65785 4.52136 30.0671
0.499072 4.4776 29.8433
0.445649 4.47558 29.8255
0.392282 4.47356 29.8076
0.33897 4.47153 29.7897
0.285715 4.46949 29.7716
0.229425 4.4642 29.694
0.178651 4.44351 29.591
0.0783891 4.42402 29.5288
0.0257222 4.42197 29.5103
-0.026885 4.41992 29.4916
-0.186618 4.41058 29.3762
-0.345174 4.40122 29.2601
-0.504131 4.38875 29.0851
-1.69121 4.68289 31.1275
-1.74559 4.68053 31.1049
2.06633 4.81538 32.691
1.99358 4.80534 32.5408
1.92954 4.76203 32.3329
1.56507 4.55595 30.8734
1.50947 4.55403 30.8577
1.45391 4.5521 30.8419
1.21167 4.53063 30.5307
1.10192 4.52672 30.4978
1.05153 4.49004 30.3678
0.99232 4.48476 30.2903
0.937919 4.4828 30.2734
0.883568 4.48082 30.2565
0.829268 4.47885 30.2394
0.775672 4.45798 30.1356
0.717504 4.45278 30.0582
0.668501 4.43526 30.015
0.614711 4.43327 29.9975
0.499978 4.42289 29.8427
0.44656 4.42089 29.8249
0.0266859 4.36771 29.5095
-0.0259155 4.36567 29.4908
-0.185634 4.35648 29.3754
-0.240063 4.35139 29.2976
-0.29215 4.34933 29.2784
-0.344174 4.34728 29.2591
-0.396134 4.34521 29.2397
-0.927118 4.42353 29.8587
-2.09068 4.65737 31.2903
2.06711 4.75626 32.6915
1.61563 4.49835 30.8272
1.55431 4.4931 30.7497
1.49893 4.49119 30.734
1.44359 4.48928 30.7181
1.32244 4.4788 30.563
1.27185 4.46123 30.5205
1.22141 4.44365 30.4779
1.16661 4.44171 30.4615
1.11186 4.43977 30.445
1.05239 4.4346 30.3675
0.99318 4.42943 30.29
0.669397 4.38032 30.0145
0.500884 4.36819 29.8422
0.447471 4.3662 29.8244
0.394114 4.36421 29.8065
-0.186931 4.29944 29.3159
-0.239075 4.29741 29.2967
-0.291156 4.29538 29.2775
-0.343173 4.29334 29.2582
-0.395127 4.29129 29.2388
-0.447017 4.28925 29.2193
-0.502104 4.28137 29.0831
-2.08949 4.59947 31.289
2.0679 4.69714 32.692
1.67802 4.44741 30.9045
1.61645 4.44228 30.8272
1.04848 4.37604 30.3064
0.994039 4.37411 30.2897
0.939647 4.37217 30.2728
0.50179 4.31349 29.8417
0.448382 4.31152 29.8238
0.39503 4.30955 29.8059
0.229115 4.29768 29.6326
0.176199 4.29569 29.6143
0.133972 4.26319 29.5451
0.081263 4.26119 29.5266
0.0286131 4.25919 29.5079
-0.023977 4.25719 29.4892
-0.185949 4.24546 29.315
-0.238087 4.24344 29.2959
-0.290162 4.24143 29.2766
-0.342173 4.23941 29.2573
2.20826 4.6905 33.0561
1.99594 4.62868 32.5421
1.92382 4.61938 32.3923
1.67884 4.39123 30.9046
1.61136 4.38307 30.7653
1.55594 4.38119 30.7497
1.50057 4.3793 30.7339
1.04934 4.32071 30.3062
0.994899 4.31878 30.2894
0.940511 4.31686 30.2725
0.769271 4.30508 30.1001
0.720157 4.28776 30.0569
0.671188 4.27044 30.0136
0.502696 4.2588 29.8411
0.449293 4.25684 29.8233
0.395946 4.25488 29.8053
-0.184967 4.19147 29.3142
-0.237099 4.18948 29.295
-0.289168 4.18748 29.2758
-0.341174 4.18548 29.2564
-0.393115 4.18347 29.2369
-0.444992 4.18146 29.2174
-0.500076 4.17402 29.0812
-1.741 4.45061 31.1
2.19424 4.62331 32.9187
2.06947 4.5789 32.693
1.67965 4.33505 30.9046
1.61217 4.32711 30.7654
1.55676 4.32524 30.7497
1.50139 4.32336 30.7339
1.32492 4.31169 30.5627
1.27879 4.27881 30.4937
1.22395 4.27691 30.4773
1.05019 4.26537 30.3059
0.995758 4.26346 30.2891
0.941374 4.26155 30.2722
0.557054 4.20605 29.8584
0.503601 4.20411 29.8406
0.450204 4.20217 29.8227
0.396862 4.20023 29.8048
0.230968 4.18885 29.6313
-0.236111 4.13552 29.2942
-0.288174 4.13354 29.2749
-0.340174 4.13156 29.2555
-0.392109 4.12957 29.236
-0.443979 4.12758 29.2165
-0.872054 4.19952 29.7534
-1.73985 4.39315 31.0988
-2.26848 4.45889 31.4076
1.9975 4.5109 32.543
1.68046 4.27888 30.9047
1.61298 4.27114 30.7654
1.55757 4.26929 30.7497
1.21462 4.21569 30.3555
1.05105 4.21004 30.3057
0.996617 4.20815 30.2888
0.942238 4.20625 30.2719
0.771016 4.19496 30.0994
0.504507 4.14942 29.8401
0.451114 4.1475 29.8222
0.397777 4.14557 29.8042
0.231895 4.13444 29.6307
0.178995 4.13251 29.6123
0.126154 4.13056 29.5938
0.0260756 4.11157 29.5311
-0.0210705 4.09451 29.4869
-0.183004 4.08352 29.3125
-0.235124 4.08157 29.2933
-0.287181 4.07961 29.274
-0.339174 4.07764 29.2546
-0.391103 4.07567 29.2351
-0.442967 4.0737 29.2155
-0.498049 4.06668 29.0793
-2.08472 4.36793 31.2837
2.19578 4.50437 32.92
1.99829 4.45201 32.5435
1.92616 4.44341 32.3936
1.68128 4.2227 30.9048
1.6138 4.21518 30.7654
1.55839 4.21334 30.7497
1.50303 4.21149 30.7338
1.10637 4.15659 30.3222
1.0519 4.15471 30.3054
0.997475 4.15283 30.2886
0.938587 4.14825 30.2111
0.825899 4.14179 30.1163
0.771888 4.1399 30.099
0.717929 4.138 30.0816
0.673873 4.10564 30.0123
0.612351 4.09855 29.8751
0.558854 4.09665 29.8574
0.505412 4.09474 29.8396
0.452024 4.09283 29.8217
0.398692 4.09092 29.8037
-0.182023 4.02956 29.3117
-0.234137 4.02762 29.2925
-0.286187 4.02568 29.2732
-0.390097 4.02178 29.2342
-0.443702 4.0174 29.1563
-1.91765 4.31043 31.2184
-2.26608 4.34262 31.4049
2.19655 4.44489 32.9206
2.13071 4.40339 32.7093
2.07182 4.40154 32.6946
1.61461 4.15922 30.7655
1.55921 4.15739 30.7497
1.50385 4.15555 30.7338
1.43746 4.14829 30.5948
1.38241 4.14645 30.5787
1.33179 4.12925 30.536
1.27687 4.1274 30.5197
1.2214 4.10758 30.416
1.16174 4.10311 30.3386
1.10722 4.10125 30.322
1.05275 4.09939 30.3052
0.998334 4.09752 30.2883
0.939448 4.09306 30.2108
0.613246 4.04384 29.8747
0.559754 4.04195 29.8569
0.506317 4.04006 29.8391
0.452934 4.03817 29.8212
0.396185 4.0338 29.7437
0.3397 4.02944 29.6661
0.233748 4.02564 29.6295
0.180859 4.02374 29.6111
-0.442692 3.96363 29.1554
-0.496022 3.95937 29.0774
-1.91649 4.25272 31.2171
-2.08234 4.25221 31.2811
-2.26487 4.2845 31.4036
2.13149 4.34426 32.7099
1.99985 4.33424 32.5445
1.67688 4.10772 30.8431
1.61542 4.10327 30.7655
1.56002 4.10145 30.7497
1.22224 4.05212 30.4159
1.16259 4.04775 30.3385
1.10807 4.04591 30.3218
1.05361 4.04406 30.305
0.999192 4.04221 30.2881
0.940308 4.03786 30.2106
0.881686 4.03352 30.1329
0.453844 3.98351 29.8207
0.397097 3.97926 29.7432
0.340616 3.97501 29.6655
0.287616 3.97313 29.6473
0.234674 3.97125 29.6289
0.18179 3.96936 29.6104
0.128965 3.96747 29.5919
-0.018166 3.93187 29.4847
-0.0756689 3.92543 29.3483
-0.127896 3.92354 29.3293
-0.180061 3.92164 29.3101
-0.232163 3.91974 29.2908
-0.284201 3.91783 29.2715
-0.441683 3.90987 29.1545
2.05924 4.27718 32.56
2.00063 4.27535 32.545
1.92851 4.26744 32.395
1.67769 4.05165 30.8432
1.61623 4.04731 30.7656
1.56084 4.0455 30.7498
1.49984 4.04118 30.6723
1.4391 4.03686 30.5947
1.00005 3.9869 30.2879
0.941168 3.98267 30.2103
0.882549 3.97844 30.1326
0.8285 3.97659 30.1154
0.774503 3.97475 30.098
0.720558 3.9729 30.0806
0.676556 3.94088 30.0111
0.615036 3.93443 29.8738
0.561553 3.93257 29.856
0.454753 3.92886 29.8202
0.39801 3.92472 29.7426
0.341531 3.92059 29.665
-0.231176 3.8658 29.29
-0.283209 3.86392 29.2707
-0.440674 3.85611 29.1536
-0.493996 3.85208 29.0756
2.19887 4.26646 32.9226
2.13305 4.226 32.711
2.0671 4.22123 32.6284
1.67248 3.99315 30.7814
1.61704 3.99136 30.7657
1.56165 3.98956 30.7498
1.50065 3.98535 30.6723
1.43992 3.98114 30.5947
1.38487 3.97934 30.5786
1.32987 3.97753 30.5623
1.28384 3.94533 30.493
1.22393 3.94119 30.4156
1.16428 3.93706 30.3381
1.10977 3.93524 30.3214
1.05531 3.93342 30.3046
1.00091 3.9316 30.2876
0.937507 3.92519 30.1495
0.562453 3.87789 29.8556
0.398922 3.87018 29.7421
0.342447 3.86617 29.6645
0.289457 3.86432 29.6462
0.236526 3.86247 29.6278
0.183652 3.86062 29.6092
-0.441421 3.80032 29.0944
2.0608 4.15938 32.5611
1.9953 4.15476 32.4786
1.67931 3.93951 30.8434
1.61785 3.9354 30.7657
1.56246 3.93362 30.7499
1.50712 3.93183 30.7339
1.16512 3.88172 30.338
1.11062 3.87991 30.3212
1.05617 3.87811 30.3044
0.938364 3.8701 30.1493
0.884273 3.86829 30.1321
0.830233 3.86648 30.1148
0.396403 3.81358 29.6822
0.343361 3.81175 29.6639
0.290377 3.80992 29.6456
0.237451 3.80809 29.6272
0.184583 3.80625 29.6087
0.128902 3.80237 29.5309
-0.0314137 3.79481 29.4153
-0.0782681 3.77823 29.3712
-0.130522 3.77638 29.3521
-0.182713 3.77454 29.3328
-0.229203 3.75795 29.2884
-0.281224 3.7561 29.269
-0.440415 3.74667 29.0936
-0.491971 3.74482 29.0738
-1.80105 4.02095 31.1251
2.20041 4.1475 32.924
2.00297 4.09869 32.5466
1.93084 4.09148 32.3965
1.68012 3.88345 30.8435
1.61866 3.87945 30.7658
1.56328 3.87768 30.75
1.50229 3.8737 30.6724
1.44155 3.86972 30.5947
0.939221 3.81502 30.1491
0.885135 3.81322 30.1319
0.831099 3.81142 30.1145
0.617718 3.77034 29.8726
0.56425 3.76853 29.8547
0.397312 3.75915 29.6817
0.344276 3.75734 29.6634
0.291297 3.75553 29.6451
-0.280232 3.7022 29.2682
-0.439409 3.69302 29.0927
-0.490958 3.69119 29.0729
-1.79992 3.96345 31.124
2.20118 4.08802 32.9247
2.13539 4.0486 32.7129
2.06943 4.0442 32.6301
2.00375 4.0398 32.5472
1.6749 3.82526 30.7817
1.61947 3.8235 30.7659
1.56409 3.82174 30.7501
1.5031 3.81787 30.6725
1.44237 3.81401 30.5948
1.38733 3.81224 30.5785
1.22135 3.77281 30.3544
1.16681 3.77104 30.3377
1.11232 3.76926 30.3209
0.940078 3.75994 30.1488
0.885996 3.75816 30.1316
0.398221 3.70472 29.6812
0.34519 3.70293 29.6629
0.292217 3.70113 29.6446
0.239301 3.69934 29.6261
0.186444 3.69754 29.6075
0.13077 3.69388 29.5297
0.0753629 3.69024 29.4518
-0.489946 3.63757 29.072
-1.79878 3.90596 31.1229
2.06313 3.98269 32.5628
1.99763 3.97843 32.4802
1.68173 3.77132 30.8438
1.62028 3.76755 30.7661
1.5649 3.7658 30.7501
1.50391 3.76205 30.6725
1.11316 3.71394 30.3208
0.940935 3.70486 30.1486
0.886857 3.70309 30.1314
0.83283 3.70132 30.114
0.39913 3.6503 29.6807
0.346104 3.64852 29.6624
0.293136 3.64675 29.644
0.131703 3.63965 29.5291
0.0762995 3.63612 29.4512
-0.0285695 3.63255 29.4134
-0.080912 3.63077 29.3943
-0.122051 3.59978 29.3248
-0.174181 3.598 29.3055
-0.226247 3.59621 29.2861
-0.280321 3.59276 29.2083
-0.334126 3.58932 29.1304
-0.437397 3.58575 29.091
-1.79765 3.84848 31.1218
-2.25645 3.87783 31.3947
2.20271 3.96906 32.9261
1.9984 3.91965 32.4808
1.93318 3.91551 32.398
1.68254 3.71526 30.8439
1.49907 3.70433 30.611
1.444 3.7026 30.5948
1.38897 3.70086 30.5786
0.941791 3.64978 30.1484
0.887717 3.64803 30.1311
0.833695 3.64628 30.1138
0.664027 3.63748 29.9406
0.615412 3.621 29.8971
0.566943 3.60452 29.8535
0.400039 3.59588 29.6803
0.347018 3.59412 29.6619
0.294055 3.59236 29.6435
-0.436392 3.53212 29.0902
-0.487923 3.53035 29.0703
-1.79652 3.791 31.1207
2.20348 3.90958 32.9269
2.13772 3.8712 32.7148
2.06468 3.86489 32.564
1.67731 3.65738 30.7822
1.49988 3.64862 30.6111
1.44482 3.64689 30.5949
1.38979 3.64516 30.5786
1.22387 3.60676 30.3541
1.16934 3.60503 30.3374
1.11486 3.6033 30.3205
0.942647 3.59471 30.1482
0.888578 3.59297 30.1309
0.560333 3.54668 29.7341
0.507148 3.54494 29.7161
0.400947 3.54146 29.6798
0.347931 3.53972 29.6615
0.294973 3.53798 29.643
0.130686 3.52963 29.4689
0.078172 3.52789 29.4501
0.0257181 3.52614 29.4311
-1.79538 3.73352 31.1197
2.06545 3.80599 32.5647
1.99996 3.80209 32.482
1.67812 3.60142 30.7823
1.1157 3.54798 30.3204
1.05178 3.54307 30.1823
0.997618 3.54136 30.1652
0.943502 3.53964 30.148
0.889437 3.53792 30.1307
0.835424 3.53619 30.1133
0.773118 3.53133 29.9753
0.348844 3.48533 29.661
0.295891 3.4836 29.6426
0.131617 3.47551 29.4683
0.0791077 3.47378 29.4495
0.0266594 3.47206 29.4305
-0.0257278 3.47033 29.4115
-0.0780532 3.4686 29.3923
-0.130316 3.46687 29.373
-0.277356 3.43141 29.206
-0.331149 3.42832 29.1281
-0.382799 3.4266 29.1083
-0.434383 3.42487 29.0885
-0.485901 3.42315 29.0686
-1.79425 3.67605 31.1186
-2.25285 3.70364 31.391
2.20501 3.79061 32.9284
2.00073 3.74331 32.4826
1.93551 3.73954 32.3997
1.67892 3.54547 30.7825
1.50151 3.53718 30.6113
1.44644 3.53549 30.595
1.38603 3.53221 30.5174
1.05263 3.48797 30.1822
0.998469 3.48627 30.1651
0.944357 3.48457 30.1479
0.890297 3.48286 30.1305
0.832008 3.47968 30.0529
0.773982 3.47651 29.9751
0.720289 3.47481 29.9574
0.66665 3.4731 29.9397
0.613064 3.47139 29.9218
0.565875 3.43915 29.7929
0.508943 3.43605 29.7153
0.402762 3.43265 29.6789
0.349756 3.43094 29.6606
0.296809 3.42923 29.6421
-0.330157 3.37467 29.1273
-0.381801 3.37296 29.1076
-0.433379 3.37126 29.0877
-1.79312 3.61859 31.1175
-2.08508 3.64768 31.3264
2.067 3.68819 32.5659
2.00151 3.68453 32.4832
1.67973 3.48951 30.7827
1.50232 3.48147 30.6114
1.44726 3.47979 30.5951
1.38685 3.47662 30.5175
1.27647 3.4571 30.3969
1.22186 3.45541 30.3802
1.17186 3.43905 30.3372
1.11254 3.43596 30.2597
1.05348 3.43288 30.1821
0.999319 3.43119 30.1649
0.945212 3.4295 30.1477
0.891155 3.42781 30.1303
0.837151 3.42612 30.1129
0.403669 3.37824 29.6785
0.350669 3.37655 29.6601
0.297726 3.37486 29.6416
0.133476 3.36727 29.4672
0.0809781 3.36558 29.4484
0.0285408 3.36389 29.4294
-0.076149 3.36051 29.3911
-0.128401 3.35882 29.3718
-1.79199 3.56114 31.1165
-2.08391 3.58979 31.3253
2.00228 3.62575 32.4838
1.93705 3.62222 32.4009
1.68053 3.43356 30.7829
1.61337 3.4291 30.6437
1.50313 3.42576 30.6115
1.10853 3.37945 30.199
1.05432 3.37778 30.182
1.00017 3.37611 30.1648
0.892014 3.37276 30.1302
0.83373 3.36982 30.0524
0.77571 3.36687 29.9746
0.186958 3.31482 29.4855
0.134405 3.31315 29.4667
0.0819127 3.31148 29.4478
0.029481 3.30981 29.4288
-0.0751975 3.30647 29.3904
-0.127443 3.3048 29.3711
-0.328175 3.26737 29.1258
-0.379807 3.26571 29.106
-1.79086 3.50369 31.1155
2.20731 3.61215 32.9307
2.00305 3.56697 32.4845
1.93783 3.56356 32.4015
1.68133 3.37761 30.7831
1.61417 3.37336 30.6439
1.55903 3.37171 30.6278
1.50394 3.37005 30.6116
1.44889 3.36839 30.5953
1.38848 3.36546 30.5176
0.892872 3.31772 30.13
0.834591 3.31489 30.0522
0.776574 3.31206 29.9744
0.722894 3.31041 29.9567
0.669269 3.30875 29.9389
0.615698 3.30709 29.9209
0.563533 3.28986 29.8173
0.511632 3.27275 29.7142
0.458528 3.27109 29.696
0.405481 3.26944 29.6777
0.352491 3.26779 29.6592
0.296357 3.26506 29.5815
0.187881 3.26069 29.485
0.135334 3.25904 29.4662
0.0828469 3.25739 29.4473
0.0304208 3.25574 29.4282
-0.37881 3.21209 29.1052
-1.57131 3.4506 31.0738
2.20807 3.55266 32.9316
2.06932 3.51148 32.568
2.01074 3.50978 32.5527
1.67615 3.32046 30.7217
1.61497 3.31763 30.644
1.55984 3.31598 30.628
1.50475 3.31434 30.6118
1.4497 3.3127 30.5954
1.38929 3.30988 30.5177
1.32915 3.30707 30.4398
1.27895 3.2909 30.3969
1.22435 3.28925 30.3802
1.11507 3.27034 30.2595
1.05601 3.2676 30.1818
1.00187 3.26596 30.1646
0.893729 3.26268 30.1298
0.459429 3.21668 29.6956
0.406387 3.21505 29.6773
0.353402 3.21341 29.6588
0.294066 3.20983 29.5219
0.241406 3.2082 29.5033
0.188804 3.20657 29.4845
0.136262 3.20494 29.4657
0.0837806 3.2033 29.4467
0.0313601 3.20167 29.4277
-0.127871 3.19583 29.3111
-1.7886 3.38881 31.1135
2.0046 3.44941 32.4858
1.93937 3.44625 32.4027
1.67695 3.26461 30.7219
1.61578 3.26189 30.6442
1.56064 3.26026 30.6281
1.50555 3.25863 30.6119
1.11105 3.21414 30.1988
1.05686 3.21252 30.1817
1.00272 3.21089 30.1645
0.832022 3.20406 29.9916
0.778299 3.20244 29.974
0.724629 3.20082 29.9562
0.294978 3.15567 29.5215
0.242323 3.15406 29.5028
0.189726 3.15245 29.4841
0.13719 3.15083 29.4652
0.0847139 3.14922 29.4462
0.0322989 3.14761 29.4271
-0.12926 3.14108 29.2518
-0.284945 3.13627 29.1931
-0.336711 3.13466 29.1733
-0.382615 3.11896 29.1286
-1.78747 3.33138 31.1125
-2.07925 3.35829 31.3209
2.2096 3.43367 32.9332
2.00537 3.39062 32.4864
1.94015 3.38759 32.4034
1.67775 3.20876 30.7221
1.61658 3.20616 30.6444
1.56145 3.20454 30.6283
1.50636 3.20293 30.6121
1.38551 3.19776 30.4566
0.83288 3.14924 29.9915
0.779161 3.14764 29.9738
0.725495 3.14603 29.956
0.562422 3.12529 29.7568
0.514317 3.10947 29.7132
0.461228 3.10787 29.6949
0.29589 3.10152 29.5211
0.243239 3.09992 29.5024
0.190648 3.09833 29.4836
0.138117 3.09674 29.4647
0.0856468 3.09514 29.4457
-2.07809 3.30043 31.3198
2.07163 3.33476 32.5701
2.01306 3.33309 32.5548
1.67255 3.15203 30.6607
1.61738 3.15043 30.6447
1.56225 3.14882 30.6285
1.38633 3.14228 30.4567
1.33159 3.14068 30.4401
1.27691 3.13908 30.4234
1.11273 3.10394 30.1987
1.05854 3.10235 30.1816
1.00441 3.10075 30.1643
0.833737 3.09442 29.9913
0.780022 3.09283 29.9736
0.2968 3.04737 29.5207
0.244155 3.04579 29.502
0.19157 3.04422 29.4832
0.139044 3.04264 29.4642
0.0865791 3.04107 29.4452
0.0341752 3.03949 29.4261
-0.127357 3.03348 29.2506
-0.179304 3.03191 29.2311
-0.231188 3.03035 29.2115
-0.283007 3.02878 29.1918
2.0724 3.27585 32.5708
2.00691 3.27306 32.4878
1.94169 3.27026 32.4047
1.67934 3.09707 30.7226
1.61818 3.0947 30.6449
1.56306 3.09311 30.6287
1.11356 3.04885 30.1987
1.05939 3.04727 30.1815
1.00065 3.04501 30.1039
0.834593 3.03961 29.9912
0.780883 3.03803 29.9735
0.727227 3.03646 29.9556
0.192491 2.99011 29.4827
0.0351126 2.98544 29.4256
-0.126406 2.97968 29.25
-0.178348 2.97814 29.2305
-0.230225 2.97659 29.2109
-0.282038 2.97504 29.1911
-0.333786 2.9735 29.1713
-0.385468 2.97196 29.1514
-0.428879 2.94157 28.9656
-1.62004 3.1624 31.0463
2.21188 3.25519 32.9358
2.00075 3.21324 32.4208
1.94246 3.2116 32.4053
1.68014 3.04123 30.7229
1.61898 3.03897 30.6451
1.56386 3.03739 30.6289
1.38795 3.03134 30.4569
0.943019 2.9879 30.0262
0.889208 2.98635 30.0087
0.835449 2.98479 29.991
0.781744 2.98323 29.9733
0.728092 2.98168 29.9555
0.560011 2.97591 29.7814
0.511893 2.96029 29.7377
0.463923 2.94467 29.6939
0.298621 2.93908 29.5199
0.245986 2.93754 29.5011
0.193411 2.936 29.4823
0.0360494 2.93139 29.4251
2.07393 3.15803 32.5723
2.00844 3.15548 32.4892
1.67494 2.9848 30.6615
1.61978 2.98324 30.6454
1.56466 2.98168 30.6291
1.44352 2.97742 30.4736
1.38876 2.97587 30.4571
1.33404 2.97431 30.4404
1.26906 2.97166 30.3016
1.22373 2.94176 30.2328
1.16946 2.94021 30.2158
1.11524 2.93866 30.1987
1.06107 2.93711 30.1815
1.00234 2.93508 30.1038
0.943865 2.93306 30.0261
0.890059 2.93152 30.0086
0.836305 2.92998 29.9909
0.782604 2.92844 29.9732
0.29953 2.88494 29.5195
0.246901 2.88342 29.5007
0.194331 2.8819 29.4819
0.0343247 2.87699 29.3658
-0.0204556 2.87512 29.2877
-0.124506 2.8721 29.2489
-0.176436 2.8706 29.2293
-0.228302 2.86909 29.2097
-0.280103 2.86759 29.1899
-0.331838 2.86608 29.17
-1.61785 3.04788 31.0445
2.2134 3.13619 32.9376
2.00921 3.0967 32.49
1.93725 3.09348 32.3394
1.68173 2.92954 30.7235
1.62058 2.92751 30.6456
1.56546 2.92596 30.6294
1.11608 2.88357 30.1987
1.06191 2.88204 30.1814
1.00318 2.88012 30.1038
0.944711 2.87822 30.026
0.890909 2.87669 30.0085
0.837159 2.87517 29.9908
0.783463 2.87365 29.973
0.725776 2.87176 29.8952
0.668353 2.86989 29.8172
0.615029 2.86837 29.7992
0.561761 2.86686 29.781
0.0352587 2.82304 29.3653
-0.0195177 2.82129 29.2872
-0.0715688 2.8198 29.2678
-0.123557 2.81832 29.2484
-0.175481 2.81683 29.2288
-0.227341 2.81535 29.2091
-0.279136 2.81386 29.1893
-0.330865 2.81238 29.1694
-0.382529 2.8109 29.1494
-0.437538 2.80896 29.0126
-0.488864 2.80749 28.9925
-1.61675 2.99063 31.0437
-2.07228 3.01122 31.3146
2.21415 3.07669 32.9385
2.00998 3.03791 32.4907
1.94476 3.03561 32.4074
1.68253 2.87369 30.7238
1.62137 2.87178 30.6459
1.56053 2.86988 30.5682
1.49994 2.86799 30.4905
1.44513 2.86646 30.474
1.39037 2.86493 30.4574
0.999406 2.82489 30.0434
0.945557 2.82338 30.026
0.891759 2.82187 30.0084
0.838014 2.82036 29.9907
0.784322 2.81886 29.9729
0.726638 2.81709 29.895
0.669217 2.81533 29.8171
0.615898 2.81383 29.799
0.562635 2.81234 29.7808
0.51455 2.79692 29.7369
0.457963 2.79519 29.6589
0.406761 2.77963 29.5561
0.354024 2.77815 29.5375
0.301347 2.77667 29.5188
0.248728 2.77519 29.5
0.196169 2.7737 29.481
0.0335277 2.76894 29.306
-0.0185803 2.76747 29.2867
-0.0706257 2.766 29.2673
-1.61566 2.93339 31.0428
2.07623 2.9813 32.5747
2.01074 2.97912 32.4915
1.62217 2.81606 30.6462
1.56133 2.81427 30.5685
1.50074 2.81249 30.4907
1.44594 2.81098 30.4742
1.39118 2.80946 30.4576
1.33647 2.80795 30.4408
1.27666 2.8062 30.3629
1.22166 2.79042 30.2589
1.17195 2.77489 30.2159
1.11775 2.77339 30.1987
1.06359 2.77189 30.1814
1.00025 2.77003 30.0434
0.946402 2.76854 30.0259
0.892608 2.76705 30.0083
0.838867 2.76556 29.9906
0.78518 2.76407 29.9728
0.249641 2.72107 29.4996
0.197087 2.71961 29.4806
0.0344589 2.7151 29.3056
-0.0176435 2.71365 29.2862
-0.0696833 2.71221 29.2668
-0.12166 2.71076 29.2473
-0.173572 2.70932 29.2277
-0.22542 2.70787 29.2079
-0.277203 2.70643 29.1881
-0.382384 2.70352 29.0898
-0.486889 2.70062 28.9911
-1.61456 2.87615 31.042
2.01151 2.92033 32.4922
1.9463 2.91828 32.4089
1.68412 2.76201 30.7244
1.62297 2.76033 30.6465
1.56212 2.75866 30.5688
1.50154 2.757 30.4909
1.00109 2.71518 30.0434
0.947246 2.7137 30.0259
0.893457 2.71223 30.0083
0.786037 2.70928 29.9727
0.72431 2.70769 29.8348
0.670945 2.70622 29.8167
0.617636 2.70476 29.7986
0.0353895 2.66127 29.3051
-0.0167073 2.65984 29.2858
-0.0687414 2.65842 29.2663
-0.120712 2.65699 29.2468
-0.172619 2.65557 29.2271
-0.224461 2.65414 29.2074
-0.383222 2.65001 29.0308
-0.434596 2.6486 29.0107
-1.61347 2.81891 31.0411
2.21642 2.89818 32.9413
1.94706 2.85961 32.4096
1.68491 2.70617 30.7247
1.62376 2.70461 30.6468
1.56292 2.70305 30.569
1.50234 2.7015 30.4912
1.44755 2.70002 30.4746
0.894305 2.65741 30.0082
0.725169 2.65312 29.8347
0.671808 2.65168 29.8166
0.618503 2.65023 29.7984
0.565254 2.64879 29.7802
0.451953 2.64602 29.6241
0.404267 2.63086 29.5803
0.356729 2.61571 29.5365
0.304067 2.61429 29.5178
0.251464 2.61286 29.4989
0.195943 2.61156 29.421
0.0363195 2.60744 29.3047
-0.0157718 2.60603 29.2853
-0.0678001 2.60463 29.2659
-0.119765 2.60322 29.2463
-0.171666 2.60182 29.2266
-0.223502 2.60042 29.2069
2.14343 2.83648 32.789
2.07852 2.80456 32.5771
2.01304 2.80275 32.4938
1.94783 2.80095 32.4104
1.56372 2.64744 30.5693
1.50314 2.64601 30.4914
1.44835 2.64454 30.4749
1.27846 2.62638 30.2763
1.22869 2.61105 30.2333
1.17444 2.6096 30.2161
1.00277 2.60548 30.0434
0.948932 2.60404 30.0258
0.895152 2.6026 30.0082
0.726026 2.59856 29.8345
0.252375 2.55876 29.4985
0.196857 2.55758 29.4207
0.141607 2.5564 29.3427
0.0372488 2.55362 29.3043
-0.0148368 2.55223 29.2849
-0.0668595 2.55084 29.2654
-0.170714 2.54808 29.2261
-0.222544 2.5467 29.2063
-0.381276 2.54308 29.0296
-1.61129 2.70446 31.0395
2.21793 2.77917 32.9432
2.0138 2.74396 32.4946
1.94183 2.74215 32.3438
1.6865 2.59449 30.7254
1.62535 2.59316 30.6474
1.56452 2.59184 30.5696
1.0036 2.55063 30.0434
0.949775 2.54921 30.0258
0.895998 2.54778 30.0081
0.726883 2.544 29.8344
0.673532 2.54259 29.8163
0.620237 2.54118 29.7981
-0.0139025 2.49843 29.2844
-0.0659195 2.49706 29.2649
-0.169762 2.49434 29.2256
-0.221587 2.49298 29.2058
-0.380304 2.48962 29.029
-0.43166 2.48828 29.0088
-0.482948 2.48694 28.9885
2.21868 2.71966 32.9442
2.00762 2.68514 32.4277
1.94935 2.68361 32.4119
1.68729 2.53865 30.7258
1.62615 2.53743 30.6478
1.56531 2.53623 30.5699
1.50474 2.53503 30.492
1.44995 2.53359 30.4754
0.950616 2.49438 30.0258
0.896844 2.49297 30.0081
0.72774 2.48944 29.8344
0.674393 2.48804 29.8162
0.621103 2.48665 29.798
0.454587 2.4832 29.6234
0.401732 2.48183 29.6048
0.359428 2.45331 29.5357
0.254194 2.45057 29.4979
0.198685 2.44962 29.42
0.143441 2.44868 29.342
0.0912426 2.44733 29.3228
0.0391056 2.44598 29.3034
-0.0129689 2.44463 29.284
-0.0649803 2.44329 29.2645
-0.168811 2.4406 29.2251
-0.22063 2.43927 29.2053
2.14569 2.65867 32.7918
2.0808 2.6278 32.5797
2.01532 2.62637 32.4963
1.95012 2.62494 32.4127
1.56611 2.48062 30.5702
1.50553 2.47954 30.4923
1.45075 2.47812 30.4756
1.27637 2.47458 30.3028
1.22657 2.45944 30.2597
1.17229 2.45803 30.2425
1.05915 2.44234 30.061
1.00528 2.44095 30.0435
0.951457 2.43955 30.0259
0.89769 2.43816 30.0081
0.728596 2.43488 29.8343
0.675254 2.43351 29.8161
0.196613 2.39616 29.3608
0.144358 2.39483 29.3416
0.0921644 2.39349 29.3224
0.0400329 2.39217 29.303
-0.0120359 2.39084 29.2836
-0.0640417 2.38951 29.264
-0.167861 2.38687 29.2246
-0.221803 2.38609 29.1463
-0.275474 2.38533 29.068
-0.378362 2.38272 29.0278
-0.429705 2.38142 29.0076
-0.482569 2.38068 28.9292
-1.62282 2.56185 31.0942
2.22018 2.60063 32.9462
2.01608 2.56757 32.4971
1.95088 2.56627 32.4135
1.68887 2.42697 30.7266
1.56115 2.42547 30.5091
1.05998 2.38748 30.0611
1.00611 2.38611 30.0435
0.952297 2.38473 30.0259
0.898534 2.38336 30.0081
0.729451 2.38033 29.8342
0.676114 2.37897 29.816
0.622832 2.37761 29.7978
-0.0631038 2.33574 29.2636
-0.222979 2.33312 29.0874
-0.274516 2.33184 29.0674
-0.325987 2.33055 29.0474
-0.377392 2.32928 29.0273
-0.428729 2.328 29.007
-0.479998 2.32673 28.9867
2.22093 2.54111 32.9472
1.95164 2.50759 32.4144
1.68365 2.37168 30.6652
1.56194 2.36996 30.5094
1.50712 2.36857 30.4929
1.45235 2.36717 30.4762
1.38687 2.3669 30.3371
0.890631 2.32981 29.8881
0.783693 2.32712 29.8522
0.730305 2.32577 29.8342
0.676973 2.32443 29.816
0.623696 2.3231 29.7977
0.457215 2.32041 29.6229
0.404375 2.31909 29.6042
0.356858 2.30435 29.5601
0.198433 2.28842 29.3601
0.146189 2.28713 29.341
0.0940059 2.28584 29.3217
0.0418855 2.28455 29.3023
-0.0101722 2.28326 29.2828
-0.0646052 2.2827 29.2047
-0.222028 2.27962 29.0869
-0.273559 2.27835 29.0669
-0.325024 2.27709 29.0469
-0.376422 2.27584 29.0267
-0.427753 2.27458 29.0065
-0.480608 2.27408 28.9281
2.14793 2.48084 32.7947
2.08308 2.45103 32.5824
2.0176 2.44997 32.4989
1.9524 2.44892 32.4152
1.56274 2.31446 30.5098
1.50792 2.31308 30.4932
1.44766 2.31236 30.4154
1.38767 2.31164 30.3374
1.3332 2.31027 30.3205
1.27879 2.30891 30.3034
1.22442 2.30754 30.2863
1.17446 2.27976 30.1565
1.06164 2.27778 30.0612
1.00778 2.27643 30.0437
0.953975 2.27509 30.026
0.895846 2.27448 29.9481
0.784542 2.27255 29.8522
0.731159 2.27122 29.8341
0.677831 2.2699 29.8159
0.624559 2.26858 29.7976
0.0949256 2.23201 29.3213
-0.00924151 2.22948 29.2824
-0.0636703 2.22904 29.2043
-0.221077 2.22612 29.0864
-0.272602 2.22487 29.0665
-0.324061 2.22364 29.0464
-0.375453 2.2224 29.0262
-0.426778 2.22117 29.0059
-0.479629 2.22078 28.9275
-1.6196 2.38992 31.092
2.01836 2.39117 32.4997
1.94639 2.39079 32.3486
1.69124 2.25946 30.7279
1.56353 2.25896 30.5102
1.50871 2.25759 30.4935
1.00862 2.2216 30.0438
0.954813 2.22027 30.0261
0.896687 2.21978 29.9482
0.838824 2.21929 29.8702
0.785391 2.21798 29.8522
0.732012 2.21668 29.8341
0.678688 2.21537 29.8158
0.625421 2.21407 29.7975
0.511852 2.21318 29.6412
0.458964 2.2119 29.6225
0.406134 2.21062 29.6038
-0.220127 2.17262 29.086
-0.271646 2.1714 29.066
-0.323099 2.17018 29.0459
-0.374485 2.16897 29.0257
-0.425804 2.16776 29.0054
-0.477055 2.16655 28.985
1.95391 2.33157 32.4169
1.68601 2.20448 30.6665
1.56432 2.20346 30.5105
1.50951 2.20211 30.4939
1.44925 2.20162 30.416
1.38926 2.20114 30.338
0.839667 2.16471 29.8702
0.786238 2.16342 29.8522
0.732864 2.16213 29.8341
0.679545 2.16085 29.8158
0.62247 2.16051 29.7377
0.565661 2.16018 29.6596
0.51272 2.15891 29.6411
0.459837 2.15765 29.6224
0.407012 2.15638 29.6036
0.354246 2.15513 29.5848
0.201157 2.12684 29.3593
0.148929 2.12561 29.34
0.0967625 2.12438 29.3207
-0.00738242 2.12193 29.2817
-0.0618027 2.12172 29.2035
-0.219178 2.11913 29.0855
-0.270691 2.11793 29.0655
-0.322138 2.11673 29.0454
-0.373518 2.11554 29.0252
-0.424831 2.11435 29.0049
-0.477672 2.11421 28.9264
-1.61746 2.27533 31.0907
2.14296 2.30373 32.729
2.08534 2.27425 32.5852
2.01987 2.27357 32.5015
1.95467 2.27289 32.4178
1.56511 2.14796 30.5109
1.5103 2.14662 30.4942
1.45005 2.14625 30.4163
1.39006 2.14589 30.3383
1.33561 2.14457 30.3213
1.2812 2.14325 30.3042
1.22685 2.14193 30.287
1.1723 2.12818 30.1827
1.11803 2.11452 30.0791
1.06413 2.11322 30.0616
1.01028 2.11193 30.044
0.956486 2.11064 30.0262
0.898366 2.11038 29.9483
0.840509 2.11013 29.8703
0.787085 2.10886 29.8522
0.733715 2.10759 29.834
0.680401 2.10632 29.8158
0.62333 2.1061 29.7377
0.566524 2.10589 29.6595
-0.0608701 2.06807 29.2031
-0.115017 2.068 29.1249
-0.218229 2.06564 29.0851
-0.269737 2.06446 29.0651
-0.321178 2.06329 29.0449
-0.372552 2.06212 29.0247
-0.423858 2.06095 29.0043
-0.476695 2.06093 28.9258
-1.61639 2.21804 31.09
2.02062 2.21476 32.5025
1.94865 2.2151 32.3511
1.6936 2.09195 30.7292
1.56589 2.09246 30.5113
1.51109 2.09114 30.4946
0.899205 2.05569 29.9484
0.841351 2.05556 29.8703
0.787931 2.0543 29.8522
0.734566 2.05305 29.834
0.681256 2.0518 29.8158
0.624188 2.0517 29.7376
0.567386 2.05161 29.6594
0.514454 2.05038 29.6409
0.461581 2.04915 29.6222
0.408766 2.04793 29.6034
-0.217281 2.01215 29.0847
-0.268783 2.011 29.0646
-0.320218 2.00985 29.0445
-0.422887 2.00756 29.0038
-0.474119 2.00642 28.9834
2.15166 2.18443 32.7998
1.94941 2.15653 32.352
1.68239 2.03844 30.6063
1.62153 2.03828 30.5283
1.56668 2.03697 30.5117
1.51188 2.03566 30.495
1.45164 2.03552 30.417
1.39165 2.03539 30.3389
1.33721 2.0341 30.3219
0.735416 1.99851 29.8341
0.682111 1.99728 29.8158
0.625046 1.9973 29.7376
0.568247 1.99732 29.6594
0.51532 1.99611 29.6408
0.462452 1.9949 29.6221
0.409642 1.9937 29.6032
0.353635 1.99376 29.525
0.193109 1.99146 29.4083
0.151662 1.96412 29.3392
0.0995118 1.96295 29.3198
-0.0614543 1.96209 29.1439
-0.113146 1.96095 29.1241
-0.164773 1.9598 29.1042
-0.216335 1.95867 29.0843
-0.26783 1.95754 29.0642
-0.319259 1.95641 29.044
-0.421916 1.95417 29.0033
-0.474743 1.95438 28.9248
-1.61426 2.10348 31.0887
2.1524 2.12515 32.8009
2.0876 2.09746 32.5881
2.02213 2.09715 32.5044
1.95693 2.09685 32.4205
1.6772 1.98407 30.5452
1.62231 1.98277 30.5287
1.56747 1.98147 30.5121
1.44693 1.98142 30.3562
1.39245 1.98015 30.3392
1.338 1.97887 30.3222
1.16979 1.96441 30.1229
1.12049 1.94993 30.0797
1.06661 1.94869 30.0621
0.896497 1.94763 29.8885
0.843032 1.94641 29.8704
0.789621 1.94519 29.8523
0.736265 1.94397 29.8341
0.682964 1.94276 29.8158
0.625903 1.9429 29.7376
0.569107 1.94304 29.6593
-0.0605255 1.90855 29.1436
-0.112212 1.90742 29.1238
-0.163833 1.90631 29.1039
-0.215389 1.90519 29.0839
-0.266878 1.90408 29.0638
-0.318301 1.90298 29.0436
-0.420946 1.90078 29.0029
-0.473768 1.90112 28.9243
-1.61319 2.0462 31.0881
2.21209 2.06728 32.8175
2.01593 2.03956 32.4374
1.95091 2.03939 32.3538
1.68395 1.92718 30.6073
1.62309 1.92725 30.5292
1.56825 1.92597 30.5126
1.44772 1.92616 30.3565
0.897332 1.89304 29.8886
0.843871 1.89184 29.8705
0.790464 1.89064 29.8524
0.737113 1.88944 29.8341
0.683817 1.88825 29.8158
0.626759 1.8885 29.7376
0.569967 1.88876 29.6593
0.51705 1.88759 29.6406
0.464191 1.88642 29.6219
0.411391 1.88526 29.603
0.355392 1.88555 29.5247
0.29966 1.88586 29.4463
-1.61213 1.98893 31.0875
1.67875 1.87301 30.5462
1.62387 1.87174 30.5297
1.44851 1.8709 30.3569
1.39403 1.86965 30.3399
1.3396 1.86841 30.3228
0.684669 1.83373 29.8158
0.623795 1.83565 29.6778
0.570826 1.83449 29.6593
0.517914 1.83333 29.6406
0.46506 1.83219 29.6218
0.412265 1.83104 29.6029
0.356269 1.83145 29.5246
0.300541 1.83188 29.4462
0.248133 1.83075 29.427
0.195786 1.82964 29.4077
0.148944 1.81559 29.3634
0.0994957 1.80314 29.2605
-0.0586706 1.80147 29.1429
-0.110345 1.80039 29.1231
-0.161955 1.79932 29.1031
-0.213499 1.79825 29.0831
-0.264977 1.79718 29.063
-0.316388 1.79612 29.0427
-0.471821 1.79459 28.9233
-1.61107 1.93167 31.0869
2.1474 1.94868 32.7353
2.01743 1.92217 32.4393
1.95241 1.92225 32.3557
1.67953 1.81748 30.5467
1.62465 1.81623 30.5301
1.4493 1.81564 30.3573
1.39482 1.81441 30.3403
1.33516 1.81476 30.2623
1.27575 1.81512 30.1842
1.22163 1.81391 30.1669
1.16756 1.8127 30.1494
1.11825 1.79843 30.1061
1.06433 1.79723 30.0885
0.898999 1.78387 29.8888
0.845547 1.7827 29.8707
0.792149 1.78154 29.8525
0.624649 1.78135 29.6778
0.571684 1.78021 29.6593
0.518776 1.77908 29.6406
0.465927 1.77795 29.6218
-0.0577444 1.74794 29.1426
-0.109414 1.74688 29.1228
-0.161018 1.74583 29.1028
-0.212556 1.74478 29.0827
-0.264028 1.74374 29.0626
-0.315433 1.7427 29.0423
-0.472455 1.74306 28.8647
-1.61 1.87441 31.0863
2.01817 1.86347 32.4403
1.95316 1.86367 32.3566
1.68628 1.76029 30.6088
1.62543 1.76072 30.5306
1.55918 1.76282 30.3914
0.899831 1.72928 29.8889
0.846383 1.72813 29.8708
0.79299 1.72699 29.8526
0.625501 1.72706 29.6779
0.572541 1.72594 29.6593
0.519638 1.72483 29.6405
0.358021 1.72327 29.5244
-1.60894 1.81715 31.0857
2.21504 1.83005 32.8221
2.1561 1.82868 32.8064
1.95391 1.8051 32.3576
1.68706 1.70466 30.6093
1.6204 1.70698 30.4699
1.55996 1.70753 30.3919
1.5054 1.70632 30.3751
1.45088 1.70512 30.3581
1.39641 1.70392 30.3411
1.33675 1.70451 30.263
1.27735 1.7051 30.1849
0.626352 1.67277 29.6779
0.573397 1.67167 29.6593
0.520499 1.67058 29.6405
0.355632 1.67103 29.4649
0.303179 1.66996 29.4458
0.250786 1.6689 29.4266
0.146186 1.66679 29.3878
0.0967719 1.65482 29.2844
0.0476141 1.64293 29.1816
-0.00417246 1.6419 29.1619
-0.0558949 1.64088 29.1421
-0.107553 1.63987 29.1222
-0.159145 1.63886 29.1022
-0.262132 1.63686 29.0619
-0.315439 1.63778 28.9834
-0.470516 1.63676 28.8638
-1.60788 1.7599 31.0851
2.14961 1.77113 32.7387
2.09209 1.74383 32.5943
2.01967 1.74606 32.4423
1.96144 1.74473 32.4262
1.68186 1.65091 30.5483
1.62117 1.65157 30.4704
1.56074 1.65224 30.3924
1.50618 1.65105 30.3755
1.45166 1.64986 30.3586
1.3972 1.64868 30.3415
1.33754 1.64938 30.2634
1.27814 1.6501 30.1852
1.22403 1.64894 30.1678
1.16997 1.64778 30.1503
1.12068 1.63371 30.1069
1.06211 1.63446 30.0286
1.00853 1.62236 29.9252
0.954986 1.62124 29.9073
0.901493 1.62012 29.8893
0.848053 1.61901 29.8711
0.794669 1.6179 29.8529
0.627203 1.61849 29.6779
0.574252 1.61741 29.6593
0.521359 1.61633 29.6405
-0.106624 1.58637 29.1219
-0.158211 1.58538 29.1019
-0.261186 1.58343 29.0615
-0.316402 1.58647 28.9248
-0.469548 1.58362 28.8634
2.02041 1.68736 32.4434
1.9554 1.68794 32.3596
1.68263 1.59538 30.5488
1.62195 1.59616 30.4709
1.56152 1.59695 30.3929
0.955812 1.56664 29.9075
0.902322 1.56554 29.8894
0.848887 1.56445 29.8713
0.79137 1.56539 29.7932
0.628053 1.5642 29.678
0.575107 1.56314 29.6593
0.522218 1.56209 29.6406
0.357376 1.56305 29.4648
0.304933 1.56203 29.4456
0.252551 1.56101 29.4264
-1.60577 1.64541 31.0841
2.15831 1.65077 32.8099
1.95614 1.62936 32.3606
1.68341 1.53985 30.5494
1.62272 1.54075 30.4714
1.5623 1.54166 30.3934
1.50774 1.5405 30.3765
1.45323 1.53935 30.3595
1.33388 1.54122 30.2033
1.27973 1.54009 30.1859
0.734956 1.51202 29.7151
0.6819 1.51097 29.6967
0.628901 1.50992 29.6781
0.57596 1.50888 29.6594
0.519499 1.50998 29.5811
0.358247 1.50907 29.4648
0.305809 1.50807 29.4456
0.253432 1.50707 29.4263
0.0967127 1.49581 29.2252
0.0503479 1.48224 29.1809
-0.00697892 1.49388 29.1857
-0.0531279 1.48033 29.1413
-0.104769 1.47938 29.1213
-0.156344 1.47844 29.1013
-0.259296 1.47658 29.0609
-0.314505 1.48005 28.9241
-0.36561 1.47914 28.9037
-0.416647 1.47824 28.8832
-0.467615 1.47734 28.8626
-1.60471 1.58818 31.0835
2.15181 1.59356 32.7421
2.02189 1.56994 32.4455
1.95689 1.57078 32.3616
1.68418 1.48433 30.55
1.6235 1.48534 30.472
1.56307 1.48637 30.3939
1.50852 1.48523 30.377
1.33467 1.4862 30.2037
1.28052 1.48509 30.1863
1.22642 1.48398 30.1689
1.12311 1.46901 30.1078
1.06455 1.47011 30.0294
1.01099 1.45852 29.9259
0.957459 1.45745 29.9079
0.903978 1.45639 29.8898
0.850552 1.45533 29.8716
0.793041 1.45651 29.7935
0.735795 1.4577 29.7153
0.682743 1.45667 29.6968
0.629749 1.45564 29.6782
0.576812 1.45462 29.6594
0.520355 1.45584 29.5812
0.464164 1.45708 29.5028
-0.626109 1.43744 29.0823
1.95763 1.51219 32.3626
1.68495 1.4288 30.5506
1.62427 1.42994 30.4725
1.56385 1.43108 30.3944
0.851382 1.40078 29.8718
0.793875 1.40207 29.7937
0.736632 1.40338 29.7154
0.683586 1.40237 29.6969
0.630596 1.40136 29.6783
0.577664 1.40036 29.6595
0.521211 1.4017 29.5812
0.465023 1.40306 29.5028
0.359986 1.40111 29.4647
0.307558 1.40015 29.4455
0.255191 1.39919 29.4261
-1.60261 1.47372 31.0825
-1.83568 1.49242 31.1778
2.21943 1.47414 32.8293
2.16051 1.47284 32.8135
1.95159 1.45596 32.296
1.68572 1.37328 30.5512
1.62504 1.37453 30.4731
1.56462 1.37579 30.3949
1.51008 1.37468 30.378
1.33624 1.37616 30.2045
1.2821 1.37508 30.1871
1.22801 1.37401 30.1696
0.631442 1.34709 29.6784
0.578514 1.34611 29.6596
0.522065 1.34757 29.5813
0.465881 1.34904 29.5029
0.413337 1.34809 29.4838
0.360854 1.34714 29.4647
0.308431 1.3462 29.4454
0.253043 1.3477 29.367
0.197923 1.34922 29.2885
0.0939216 1.34739 29.2494
0.0420161 1.34649 29.2296
-0.0042532 1.33314 29.1852
-0.0616022 1.3447 29.1899
-0.113314 1.34382 29.1698
-0.159256 1.3305 29.1251
-0.311667 1.32046 28.9232
-0.362754 1.31962 28.9027
-0.413773 1.31878 28.8821
-0.464723 1.31796 28.8614
-0.624157 1.33035 29.0815
-1.8346 1.43497 31.1772
2.154 1.41597 32.7457
2.02411 1.39381 32.4487
1.95911 1.39502 32.3647
1.61999 1.3216 30.4123
1.5654 1.3205 30.3955
1.51085 1.31941 30.3785
1.39121 1.32221 30.2222
1.33703 1.32114 30.2049
1.28289 1.32008 30.1875
1.06227 1.3083 29.9701
1.01344 1.29469 29.9267
0.959922 1.29368 29.9087
0.79554 1.29321 29.794
0.738304 1.29476 29.7157
0.685267 1.29378 29.6972
0.632287 1.29281 29.6785
0.579364 1.29185 29.6597
0.522918 1.29343 29.5814
0.466738 1.29503 29.5029
0.414199 1.29409 29.4839
-1.83353 1.37752 31.1767
2.22088 1.35548 32.8318
1.95306 1.33901 32.2981
1.68726 1.26223 30.5524
1.62076 1.2663 30.4129
1.56617 1.26521 30.396
0.792229 1.2414 29.7344
0.739139 1.24044 29.7159
0.686106 1.23949 29.6973
0.63313 1.23854 29.6786
0.580212 1.2376 29.6598
0.520188 1.24194 29.522
0.467594 1.24102 29.503
0.41506 1.2401 29.4839
0.362587 1.2392 29.4647
0.310173 1.2383 29.4454
0.254794 1.24004 29.3669
0.199682 1.2418 29.2884
0.14766 1.24093 29.2688
0.095702 1.24006 29.2491
2.22161 1.29615 32.8331
1.9538 1.28053 32.2991
1.68802 1.2067 30.5531
1.62153 1.21099 30.4135
1.56694 1.20993 30.3966
1.50684 1.21155 30.3186
1.447 1.21318 30.2404
1.39277 1.21214 30.2232
1.33859 1.21111 30.2059
0.521038 1.18791 29.5221
0.468449 1.18701 29.5031
0.41592 1.18611 29.4839
0.363451 1.18523 29.4647
0.311043 1.18435 29.4454
0.255668 1.18622 29.3669
0.20056 1.1881 29.2883
0.148544 1.18725 29.2687
0.0965907 1.1864 29.2491
0.0447013 1.18556 29.2293
-0.00712393 1.18473 29.2094
-0.158664 1.17274 29.0659
-0.206497 1.16245 28.9631
-0.257702 1.16167 28.9427
-0.308839 1.16089 28.9223
-0.359908 1.16012 28.9018
-0.410909 1.15936 28.8811
-1.83139 1.26265 31.1757
2.15618 1.23837 32.7495
2.09031 1.23993 32.6644
2.02632 1.21765 32.4521
1.96133 1.21925 32.368
1.68879 1.15118 30.5537
1.62229 1.15569 30.4141
1.56771 1.15464 30.3972
1.50761 1.15638 30.3191
1.44778 1.15813 30.241
1.39355 1.15711 30.2237
1.33938 1.15609 30.2064
1.28525 1.15508 30.1889
1.22619 1.15687 30.1106
1.17206 1.14623 30.0068
1.11835 1.14525 29.989
1.06468 1.14428 29.9712
1.01107 1.14331 29.9531
0.957919 1.13274 29.8496
0.793886 1.13275 29.7348
0.740805 1.13183 29.7163
0.687781 1.13091 29.6977
0.521887 1.13388 29.5222
0.469303 1.133 29.5031
0.416779 1.13213 29.484
0.364315 1.13126 29.4648
0.311912 1.13041 29.4455
-1.83033 1.20522 31.1752
2.29709 1.1729 32.9903
1.94854 1.16647 32.2339
1.62306 1.10038 30.4148
1.56848 1.09935 30.3978
0.901033 1.08025 29.7718
0.794713 1.07842 29.735
0.741637 1.07752 29.7165
0.688617 1.07662 29.6979
0.522736 1.07985 29.5223
0.470156 1.07899 29.5032
0.417637 1.07814 29.4841
0.365178 1.0773 29.4648
0.257413 1.07857 29.3669
0.202313 1.08069 29.2883
0.150308 1.07989 29.2687
-1.82926 1.1478 31.1747
2.22378 1.11814 32.837
2.16487 1.11693 32.821
1.69032 1.04012 30.5551
1.62382 1.04508 30.4154
1.56925 1.04406 30.3984
1.50359 1.04903 30.2592
1.44932 1.04803 30.2421
1.39511 1.04704 30.2248
0.523583 1.02583 29.5224
0.471008 1.02499 29.5033
0.418494 1.02416 29.4842
0.258284 1.02475 29.3669
0.203189 1.027 29.2883
0.151188 1.02621 29.2686
0.0992506 1.02543 29.2489
0.0473771 1.02466 29.229
-0.00691565 1.02694 29.1504
-0.163821 1.02775 29.0313
-0.215162 1.02703 29.011
-0.266436 1.02631 28.9906
-0.311831 1.01348 28.9458
-0.362926 1.01278 28.9252
-0.413952 1.01209 28.9045
-1.82819 1.09038 31.1742
2.15835 1.06074 32.7533
2.02852 1.04148 32.4556
1.95674 1.04661 32.3036
1.67921 0.990785 30.4329
1.62459 0.989776 30.4161
1.50436 0.99396 30.2598
1.4501 0.992981 30.2426
1.39588 0.992009 30.2253
1.2282 0.983035 30.0258
1.17444 0.982103 30.0081
1.12074 0.981178 29.9902
0.960361 0.969285 29.8506
0.902667 0.971521 29.7724
0.849488 0.970643 29.754
0.796364 0.969773 29.7356
0.743296 0.968911 29.717
0.690286 0.968056 29.6983
0.524429 0.971807 29.5226
0.471859 0.970991 29.5035
0.419349 0.970182 29.4843
-1.82713 1.03296 31.1738
2.30626 1.01415 33.196
2.22522 0.999459 32.8397
1.95747 0.98812 32.3047
1.67997 0.935464 30.4336
1.62535 0.934472 30.4167
0.903482 0.91716 29.7727
0.850307 0.916302 29.7543
0.797188 0.915452 29.7358
0.744125 0.914609 29.7172
0.68722 0.916998 29.639
0.630581 0.919402 29.5606
0.525274 0.917787 29.5227
0.472709 0.916992 29.5036
0.420204 0.916204 29.4844
0.256989 0.920359 29.3079
0.204936 0.91961 29.2883
0.152945 0.918869 29.2686
-0.00512815 0.919929 29.1502
-0.0591422 0.922461 29.0714
-0.162002 0.92108 29.031
-0.213332 0.920402 29.0107
-0.472037 0.923624 28.7909
-1.60668 0.991687 31.0011
2.22594 0.940112 32.8411
2.15979 0.942304 32.7559
1.68072 0.880143 30.4343
1.50589 0.883827 30.261
1.45164 0.882883 30.2438
1.39743 0.881946 30.2264
0.631415 0.865343 29.5608
0.578737 0.864552 29.5419
0.526117 0.863769 29.5229
0.473557 0.862995 29.5038
0.421057 0.862228 29.4845
0.257855 0.866647 29.3079
0.205807 0.86592 29.2883
0.153822 0.865201 29.2686
-0.00672238 0.869761 29.0914
-0.0582455 0.869082 29.0713
-0.161094 0.867748 29.0309
-0.212418 0.867093 29.0105
-0.263675 0.866447 28.99
-0.360116 0.853206 28.9245
-0.418676 0.867899 28.8698
-0.471096 0.870633 28.7907
-1.82501 0.918144 31.1729
2.16051 0.883084 32.7573
2.09465 0.885423 32.672
2.03071 0.865291 32.4593
1.95219 0.874607 32.2395
1.68148 0.824822 30.435
1.61531 0.83064 30.2959
1.56096 0.829697 30.2788
1.50666 0.828761 30.2617
1.45241 0.827834 30.2444
1.39289 0.830302 30.1663
1.33364 0.832787 30.088
1.28436 0.819748 30.045
1.23056 0.818862 30.0273
1.17682 0.817985 30.0095
1.12313 0.817116 29.9916
0.958331 0.809269 29.7917
0.905109 0.808442 29.7734
0.851942 0.807623 29.755
0.798832 0.806812 29.7364
0.688881 0.80864 29.6395
0.632249 0.811285 29.561
0.579575 0.810515 29.5421
0.52696 0.809753 29.5231
0.474405 0.809 29.5039
0.42191 0.808255 29.4847
0.258721 0.812937 29.308
-1.60463 0.87755 31.0004
-1.71402 0.869159 31.0864
-1.82395 0.860742 31.1725
1.95292 0.816228 32.2407
0.905921 0.754084 29.7738
0.852758 0.753285 29.7553
0.689709 0.754463 29.6397
0.633081 0.757229 29.5613
0.580412 0.756479 29.5423
0.527802 0.755739 29.5233
0.475251 0.755006 29.5041
0.419416 0.757806 29.4256
0.259585 0.75923 29.3081
0.207548 0.758547 29.2884
0.155573 0.757873 29.2687
-1.54978 0.821017 31.0242
-1.60361 0.820487 31.0001
-1.71298 0.811929 31.0861
2.22809 0.762055 32.8453
1.96038 0.754157 32.3094
1.68299 0.714178 30.4365
1.61683 0.720439 30.2972
1.56248 0.71953 30.2802
1.50819 0.718629 30.263
1.45394 0.717737 30.2457
0.476096 0.701015 29.5043
0.420265 0.703935 29.4258
0.364701 0.706871 29.3472
0.312544 0.706194 29.3278
0.260449 0.705525 29.3082
0.208416 0.704864 29.2885
0.156446 0.704213 29.2688
-0.00405531 0.709572 29.0913
-0.0555622 0.708962 29.0712
-0.107003 0.708361 29.051
-0.158377 0.707769 29.0306
-0.209685 0.707185 29.0102
-0.260924 0.706611 28.9896
-0.417519 0.712212 28.8109
-0.46828 0.711679 28.79
-1.71194 0.754702 31.0857
-1.82184 0.745949 31.1718
2.17109 0.679733 32.7011
2.1053 0.682488 32.6161
2.03289 0.689081 32.463
1.9747 0.688013 32.4465
1.67786 0.662548 30.3761
1.61758 0.665339 30.2979
1.56324 0.664447 30.2808
1.45471 0.662689 30.2463
1.38989 0.669209 30.1073
1.34053 0.656364 30.0642
1.2867 0.655525 30.0466
1.23291 0.654694 30.0289
1.17918 0.653873 30.011
1.12548 0.644785 29.9075
1.06733 0.647703 29.8294
1.01401 0.646918 29.8112
0.96075 0.646141 29.7929
0.907541 0.645373 29.7745
0.854387 0.644614 29.756
0.687461 0.649837 29.5807
0.634742 0.649121 29.5618
0.582082 0.648414 29.5428
0.417768 0.653789 29.3667
0.365554 0.653124 29.3474
0.313401 0.652469 29.3279
0.261311 0.651822 29.3083
0.209283 0.651184 29.2886
0.157319 0.650555 29.2688
-1.54775 0.706844 31.0236
-1.60157 0.706374 30.9995
-1.71091 0.69748 31.0854
-2.10873 0.70401 31.2396
1.01481 0.592524 29.8116
0.961554 0.591767 29.7933
0.908349 0.591019 29.7749
0.850986 0.594093 29.6968
0.793886 0.597183 29.6185
0.741057 0.596469 29.5998
0.688285 0.595765 29.581
0.635571 0.595069 29.5621
0.582915 0.594383 29.5431
0.418614 0.600022 29.3669
0.366405 0.599379 29.3475
0.314257 0.598746 29.328
0.262172 0.598121 29.3084
0.210149 0.597506 29.2887
0.15819 0.5969 29.2689
-0.00228307 0.602792 29.0913
-0.0537791 0.602229 29.0711
-0.105209 0.601675 29.0509
-0.156572 0.601131 29.0305
-0.259097 0.600069 28.9894
-0.466409 0.605727 28.7896
-1.60056 0.649324 30.9992
1.67936 0.552107 30.3776
1.61909 0.555138 30.2994
1.56476 0.55428 30.2823
0.583747 0.540354 29.5433
0.419459 0.546257 29.3671
0.367254 0.545636 29.3477
0.315112 0.545025 29.3282
0.263031 0.544423 29.3086
0.211014 0.54383 29.2888
0.15906 0.543246 29.269
0.101779 0.550514 29.1314
-0.00139875 0.549406 29.0913
-0.0528894 0.548867 29.0711
-0.104314 0.548337 29.0509
-0.260135 0.550725 28.931
-0.313036 0.55416 28.852
-0.414732 0.553215 28.8104
-0.465475 0.552757 28.7895
-1.54574 0.592686 31.0232
-1.59954 0.592277 30.999
-1.70884 0.583048 31.0848
1.68011 0.496887 30.3784
1.61984 0.500037 30.3002
1.56551 0.499196 30.283
1.39219 0.50473 30.1092
1.34285 0.492089 30.0661
1.28903 0.491305 30.0484
1.11835 0.497024 29.8741
1.06494 0.496285 29.8559
1.01159 0.495556 29.8377
0.852606 0.485628 29.6975
0.795514 0.48896 29.6192
0.742693 0.488288 29.6005
0.68993 0.487625 29.5816
0.637225 0.486971 29.5627
0.584578 0.486327 29.5436
0.420302 0.492494 29.3673
0.368103 0.491895 29.3479
0.315965 0.491306 29.3284
0.26389 0.490726 29.3087
0.211877 0.490156 29.289
