0.167765 7.54362 30.8096
0.11258 7.54079 30.7923
0.0574501 7.53794 30.7748
0.00237557 7.53507 30.7573
-0.0526429 7.53218 30.7396
-0.107605 7.52928 30.7218
-0.162509 7.52637 30.7039
-0.217356 7.52343 30.6858
-0.272144 7.52048 30.6677
-0.326874 7.51752 30.6495
-0.381543 7.51453 30.6311
-0.436152 7.51153 30.6126
-0.4907 7.50852 30.5941
-0.599611 7.50244 30.5566
-0.760014 7.51123 30.6251
-0.975529 7.51678 30.6736
2.42062 7.84765 32.3881
2.35453 7.83591 32.3096
2.29551 7.78559 32.1748
2.23007 7.77396 32.0968
2.1649 7.76231 32.0186
1.80008 7.6733 31.6244
1.74295 7.67097 31.6104
1.387 7.58241 31.2159
1.33068 7.57995 31.2011
1.27753 7.53109 31.0696
1.2163 7.51971 30.9921
1.16042 7.5172 30.9769
1.04879 7.51214 30.9462
0.707668 7.4244 30.5511
0.652725 7.42175 30.5348
0.227205 7.49876 30.8887
0.168717 7.48702 30.8087
0.113537 7.4842 30.7913
0.00334391 7.4785 30.7562
-0.0516691 7.47563 30.7385
-0.974433 7.46004 30.6722
-1.20364 7.50328 30.7749
2.83777 7.96759 33.1815
2.48781 7.80076 32.4668
2.23087 7.71584 32.0967
2.16569 7.7043 32.0185
2.10782 7.70209 32.0053
1.80089 7.61583 31.6242
1.74377 7.61351 31.6102
1.68056 7.60207 31.5323
1.62546 7.55301 31.3999
1.56877 7.55063 31.3855
1.21716 7.46313 30.9916
1.16129 7.46063 30.9763
1.04003 7.43809 30.8214
0.763554 7.37104 30.5664
0.653629 7.36577 30.534
0.224898 7.43321 30.825
0.16967 7.43042 30.8077
0.114496 7.42761 30.7903
0.00431305 7.42194 30.7552
-0.0506944 7.41908 30.7374
-0.105645 7.4162 30.7196
-0.160538 7.41331 30.7017
-0.215374 7.4104 30.6836
-0.324868 7.40454 30.6471
-0.379525 7.40158 30.6287
-0.434122 7.39861 30.6102
-0.488658 7.39563 30.5916
-0.597544 7.3896 30.554
-0.757892 7.39806 30.6224
-0.973336 7.40331 30.6707
2.83854 7.90782 33.1819
2.69668 7.85467 32.9246
2.63719 7.85265 32.9126
2.48075 7.73264 32.4008
2.42218 7.73054 32.3883
2.22438 7.64847 32.0316
2.16648 7.64628 32.0185
2.10162 7.63488 31.9405
2.03702 7.62346 31.8623
1.98674 7.5833 31.7934
1.85886 7.56067 31.6379
1.8017 7.55837 31.6239
1.56373 7.48466 31.3221
1.50142 7.47343 31.2445
1.44503 7.47103 31.2298
1.15711 7.39542 30.9137
1.09646 7.38428 30.8363
1.04089 7.38175 30.8208
0.874557 7.32023 30.5976
0.81948 7.31764 30.5817
0.760226 7.3066 30.5046
0.544814 7.30448 30.5003
-0.0497189 7.36253 30.7364
-0.159552 7.35679 30.7006
-0.214381 7.3539 30.6825
-0.323863 7.34806 30.646
-0.378515 7.34512 30.6275
-0.433106 7.34216 30.609
-0.487636 7.33919 30.5904
-0.596509 7.3332 30.5528
-0.756829 7.34149 30.621
-1.20141 7.38932 30.7719
2.48153 7.67408 32.401
2.42296 7.67198 32.3884
2.35607 7.61303 32.1876
2.29789 7.61089 32.1747
2.22517 7.59045 32.0316
1.97408 7.50774 31.6651
1.91686 7.50548 31.6514
1.85967 7.50321 31.6376
1.80252 7.50092 31.6237
1.55868 7.4189 31.2586
1.50225 7.41652 31.2441
1.44586 7.41413 31.2294
1.33075 7.3549 31.0207
1.27479 7.35246 31.0056
1.21888 7.34999 30.9905
1.15293 7.33043 30.8511
0.930563 7.26678 30.6128
0.875445 7.26422 30.5969
0.820373 7.26165 30.581
0.76112 7.25071 30.5038
0.70213 7.23976 30.4266
0.226796 7.32001 30.8231
0.171578 7.31724 30.8057
0.116415 7.31445 30.7883
0.00625363 7.30883 30.7531
-0.0487427 7.306 30.7353
-0.158564 7.30028 30.6995
-0.213388 7.2974 30.6814
-0.432089 7.28572 30.6078
-0.486613 7.28276 30.5891
-0.595474 7.2768 30.5515
-0.755766 7.28492 30.6197
-0.97114 7.28987 30.6678
-1.2003 7.33235 30.7704
2.49016 7.62476 32.4672
2.28389 7.5346 32.0446
2.22596 7.53244 32.0316
2.16807 7.53026 32.0184
2.09621 7.5101 31.8756
1.91766 7.44802 31.6513
1.86048 7.44575 31.6374
1.73759 7.40493 31.4546
1.55951 7.36199 31.2583
1.50308 7.35962 31.2437
1.15379 7.27408 30.8505
1.09818 7.27159 30.8351
0.762014 7.19483 30.5031
0.117375 7.25788 30.7873
0.00722501 7.25229 30.7521
-0.0477658 7.24946 30.7343
-0.212394 7.24091 30.6802
-0.321853 7.23512 30.6436
-0.376492 7.23221 30.6252
-0.431071 7.22928 30.6066
-0.485589 7.22634 30.5879
-0.594437 7.2204 30.5502
-0.754702 7.22836 30.6183
2.77237 7.71701 33.1029
2.69586 7.69601 32.9548
2.62632 7.63639 32.7496
2.48309 7.55697 32.4012
2.28468 7.47658 32.0446
2.22676 7.47443 32.0316
2.097 7.45231 31.8755
2.04665 7.41248 31.8065
1.98243 7.40153 31.7289
1.91847 7.39056 31.6511
1.86129 7.38829 31.6372
1.56034 7.30508 31.2579
1.50392 7.30272 31.2433
1.26598 7.22265 30.8805
1.21029 7.2202 30.8653
1.15465 7.21773 30.8499
1.09905 7.21525 30.8345
0.987488 7.15728 30.6272
0.932332 7.15476 30.6114
-0.0467881 7.19294 30.7332
-0.211399 7.18442 30.6791
-0.320846 7.17866 30.6425
-0.37548 7.17576 30.624
-0.430052 7.17285 30.6054
-0.484564 7.16992 30.5867
-0.5934 7.16401 30.549
-0.753638 7.1718 30.617
2.40997 7.47838 32.2571
2.34342 7.4207 32.0576
2.28547 7.41857 32.0446
1.97649 7.33534 31.6647
1.91928 7.3331 31.6509
1.85564 7.32226 31.5733
1.61763 7.25052 31.2721
1.56117 7.24818 31.2575
1.50475 7.24582 31.2429
1.43715 7.22668 31.1027
1.38929 7.18759 31.0341
1.32793 7.17695 30.9571
1.26683 7.16629 30.88
1.21115 7.16385 30.8647
0.933218 7.09875 30.6107
0.755377 7.06704 30.3798
0.603298 7.08334 30.5135
0.229647 7.15025 30.8202
0.174445 7.14751 30.8029
0.119298 7.14476 30.7854
0.00916984 7.13922 30.75
-0.0458098 7.13642 30.7322
-0.210404 7.12794 30.678
-0.319839 7.12221 30.6413
-0.374466 7.11933 30.6228
-0.429033 7.11642 30.6042
-0.483538 7.11351 30.5855
-0.592362 7.10763 30.5477
-0.752572 7.11526 30.6157
-1.19695 7.16149 30.7659
2.3442 7.36269 32.0576
2.28626 7.36056 32.0447
2.15622 7.33893 31.8888
1.92009 7.27564 31.6507
1.84998 7.25645 31.5094
1.79306 7.25418 31.4953
1.73769 7.20656 31.3635
1.67494 7.19593 31.2861
1.61845 7.19361 31.2717
1.32878 7.12048 30.9566
1.26768 7.10994 30.8795
1.212 7.1075 30.8642
0.870092 7.02436 30.472
0.815252 7.02182 30.4559
0.756267 7.01138 30.379
0.0101432 7.08269 30.749
-0.0448308 7.0799 30.7312
-0.209407 7.07147 30.6769
-0.318831 7.06577 30.6402
-0.373452 7.06289 30.6217
-0.428013 7.06001 30.603
-0.482512 7.05711 30.5843
-0.591323 7.05126 30.5464
2.70133 7.49844 32.9265
2.62865 7.4591 32.7504
2.46986 7.36381 32.2701
2.28705 7.30255 32.0447
2.21467 7.2833 31.9021
2.15701 7.28114 31.8888
2.03535 7.22263 31.678
1.9781 7.22042 31.6644
1.73229 7.14132 31.3001
1.67577 7.13902 31.2858
1.61928 7.13671 31.2714
1.49497 7.11569 31.1167
1.26853 7.05359 30.879
1.20774 7.04318 30.802
1.14722 7.03276 30.7248
1.0962 7.01226 30.6829
1.04092 7.00979 30.6673
0.925858 6.97108 30.4872
0.870976 6.96857 30.4713
0.816142 6.96605 30.4552
0.605126 6.97147 30.5119
-0.979943 7.02702 30.589
-1.19472 7.04763 30.763
2.47064 7.30547 32.2702
2.34578 7.24667 32.0577
2.28049 7.2361 31.98
2.03615 7.16517 31.6779
1.90854 7.14422 31.523
1.61416 7.07174 31.2084
1.55198 7.06135 31.1311
1.4958 7.05901 31.1163
1.3251 6.99964 30.8936
1.26938 6.99724 30.8785
0.981663 6.91778 30.5024
0.926739 6.9153 30.4866
0.871862 6.91279 30.4706
0.343038 6.98589 30.852
0.277439 7.01983 30.8891
0.177318 6.97784 30.8
0.122187 6.97512 30.7825
-0.042871 6.96689 30.7291
-0.207413 6.95853 30.6747
-0.316813 6.95289 30.6379
-0.371422 6.95005 30.6193
-0.425971 6.94719 30.6007
-0.480457 6.94432 30.5819
-0.589243 6.93853 30.544
-0.749372 6.94566 30.6117
-0.978869 6.97046 30.5876
-1.1936 6.9907 30.7615
2.54558 7.26628 32.4146
2.34657 7.18866 32.0578
2.28128 7.1782 31.98
2.21625 7.16773 31.9021
2.15859 7.16558 31.8888
1.96632 7.0892 31.5367
1.90935 7.08698 31.5228
1.79549 7.08249 31.4947
1.73394 7.02749 31.2996
1.67742 7.02521 31.2852
1.61499 7.01494 31.2081
1.43749 6.94803 30.9232
1.3817 6.94567 30.9083
1.32595 6.94329 30.8932
1.27024 6.9409 30.878
1.20433 6.92294 30.7392
0.98254 6.86199 30.5018
0.872748 6.85702 30.4699
0.809301 6.83933 30.3323
-0.206415 6.90208 30.6736
-0.315803 6.89646 30.6368
-0.370406 6.89363 30.6182
-0.588202 6.88218 30.5427
-1.19248 6.93379 30.7601
2.70683 7.30118 32.8981
2.63099 7.28182 32.7513
2.53845 7.1993 32.349
2.47219 7.18882 32.2706
2.28207 7.12031 31.9801
2.21704 7.10994 31.9021
2.16651 7.07078 31.8329
2.09502 7.05243 31.6914
2.03776 7.05025 31.6777
1.79131 6.97284 31.3136
1.73476 6.97058 31.2993
1.60986 6.95029 31.145
1.20518 6.86681 30.7387
1.14978 6.8644 30.7232
1.09828 6.81863 30.5937
1.03838 6.80865 30.517
0.983418 6.8062 30.5012
-0.976719 6.85736 30.585
-1.19136 6.87688 30.7586
2.53132 7.13254 32.2834
2.47297 7.13049 32.2708
2.40612 7.07474 32.0709
2.34815 7.07265 32.058
2.2755 7.05429 31.9154
2.09583 6.99497 31.6913
2.03175 6.98485 31.6139
1.96793 6.97472 31.5364
1.91096 6.97251 31.5225
1.61068 6.8936 31.1447
1.55446 6.8913 31.1301
1.50644 6.85287 31.0613
1.43917 6.8353 30.9224
1.38339 6.83296 30.9074
1.03925 6.75286 30.5164
0.984296 6.75041 30.5005
0.710214 6.73799 30.4197
0.335606 6.85247 30.9039
0.280233 6.84984 30.8866
0.114438 6.84184 30.834
-0.0426288 6.78979 30.6636
-0.204417 6.78918 30.6715
-0.313781 6.78362 30.6345
-0.368373 6.78082 30.6159
-0.422903 6.77801 30.5972
-0.477371 6.77518 30.5783
-0.531776 6.77234 30.5593
-0.586119 6.76949 30.5402
-0.758445 6.81257 30.6625
-0.975643 6.80082 30.5836
2.54793 7.09064 32.4152
2.4069 7.01674 32.071
2.34894 7.01465 32.058
2.27629 6.9965 31.9154
2.03255 6.92751 31.6138
1.96873 6.91748 31.5363
1.90523 6.90749 31.459
1.84953 6.86126 31.3273
1.79295 6.85902 31.3131
1.66776 6.8392 31.159
1.44002 6.77895 30.922
1.37878 6.76914 30.8452
1.31781 6.75932 30.7684
1.04013 6.69707 30.5157
0.980535 6.68734 30.4392
0.866556 6.67515 30.3464
0.711116 6.68227 30.419
-1.18912 6.76309 30.7557
2.69251 7.10656 32.7645
2.54079 7.02399 32.3497
2.27708 6.93872 31.9155
2.2194 6.93661 31.9022
2.15472 6.88221 31.7047
2.09743 6.88006 31.6912
2.02654 6.86243 31.5501
1.72486 6.78477 31.1732
1.66858 6.78251 31.1587
1.37417 6.70553 30.7831
1.31865 6.70318 30.7679
1.26318 6.70083 30.7526
1.096 6.64369 30.5309
1.041 6.64128 30.5151
0.981411 6.63167 30.4386
-0.86505 6.6936 30.6207
-0.973488 6.68776 30.5809
-1.58207 6.75244 30.9219
2.54157 6.96555 32.3499
2.47531 6.95552 32.2713
2.40848 6.90073 32.0713
2.15552 6.82475 31.7047
2.02734 6.80519 31.55
1.97034 6.80302 31.5361
1.782 6.73031 31.1873
1.72568 6.72808 31.173
1.6694 6.72583 31.1585
1.60133 6.70875 31.0191
1.55337 6.67085 30.951
1.49752 6.66855 30.9361
1.37502 6.64939 30.7827
1.1519 6.59028 30.546
1.09687 6.5879 30.5303
1.04188 6.5855 30.5145
0.982288 6.57599 30.4379
0.338389 6.68249 30.9016
0.283031 6.67989 30.8842
0.114296 6.66459 30.7685
-0.0424026 6.61337 30.5982
-0.201417 6.61989 30.6683
-0.310745 6.61441 30.6312
-0.365318 6.61166 30.6125
-0.41983 6.60889 30.5937
-0.474279 6.60611 30.5748
-0.540496 6.63928 30.61
-0.582989 6.6005 30.5366
-0.755293 6.6428 30.6588
-0.863986 6.63705 30.6194
-0.97241 6.63124 30.5796
2.39409 6.82733 31.942
2.33636 6.82525 31.9289
2.27866 6.82316 31.9156
2.08517 6.75011 31.5637
2.02814 6.74796 31.5499
1.97114 6.74579 31.536
1.90109 6.72864 31.3952
1.85199 6.69052 31.3267
1.78912 6.68096 31.2498
1.7265 6.67139 31.1727
1.37586 6.59326 30.7823
1.32035 6.59093 30.767
1.26488 6.58859 30.7517
0.978516 6.51334 30.3766
0.923836 6.51092 30.3606
0.869203 6.5085 30.3445
-0.971331 6.57473 30.5783
2.5352 6.84091 32.2845
2.33714 6.76747 31.929
2.21444 6.71196 31.7182
2.15713 6.70984 31.7046
2.08597 6.69287 31.5636
1.78363 6.61693 31.1869
1.72732 6.6147 31.1725
1.67104 6.61247 31.158
1.43225 6.53943 30.797
1.3767 6.53713 30.7819
1.32119 6.53481 30.7666
1.26053 6.52546 30.6899
1.20871 6.48105 30.5605
1.14866 6.4718 30.4842
1.03411 6.46017 30.392
0.340247 6.56918 30.9
0.278246 6.55219 30.7569
-0.753188 6.52965 30.6564
-0.861855 6.52396 30.6169
-0.970252 6.51823 30.577
2.53598 6.78259 32.2848
2.39566 6.71176 31.9422
2.33793 6.70969 31.9291
2.14382 6.63776 31.5773
2.08677 6.63563 31.5636
2.02974 6.63349 31.5498
1.72814 6.55802 31.1723
1.66584 6.5487 31.0953
1.60379 6.53936 31.0183
1.55589 6.50177 30.95
1.48868 6.48557 30.8117
1.43309 6.48329 30.7966
1.14953 6.41611 30.4837
1.08975 6.40697 30.4072
1.03498 6.4046 30.3914
0.980266 6.40222 30.3754
0.870971 6.39742 30.3432
0.279174 6.49576 30.7561
0.114139 6.48801 30.7031
-0.0503899 6.48014 30.6491
-0.105117 6.4775 30.6309
-0.209733 6.48634 30.7197
-0.373864 6.47823 30.6636
-0.482976 6.47276 30.6257
-0.537438 6.47001 30.6066
-0.591835 6.46725 30.5874
-0.860789 6.46743 30.6156
-0.969172 6.46173 30.5757
2.39644 6.65397 31.9424
2.33872 6.65191 31.9292
2.08757 6.5784 31.5636
1.96023 6.55978 31.409
1.84161 6.50574 31.2009
1.78527 6.50355 31.1865
1.48951 6.42943 30.8113
1.43393 6.42716 30.7962
1.09061 6.35139 30.4067
1.03585 6.34903 30.3908
0.981142 6.34666 30.3748
-0.859722 6.4109 30.6144
-0.968091 6.40524 30.5744
2.53754 6.66595 32.2853
2.3395 6.59413 31.9293
2.26719 6.57759 31.7872
2.21684 6.53959 31.7182
2.14542 6.52328 31.5773
2.08837 6.52117 31.5635
1.84243 6.44905 31.2007
1.78609 6.44686 31.1863
1.72978 6.44466 31.1718
1.66145 6.42867 31.0325
1.42924 6.36431 30.7345
1.36839 6.35532 30.6579
1.31311 6.35303 30.6426
1.25787 6.35073 30.6271
1.14628 6.29816 30.4219
1.09148 6.29582 30.4061
1.03673 6.29347 30.3902
0.818172 6.28397 30.3256
0.763653 6.28156 30.3091
0.281031 6.38294 30.7546
0.116027 6.37526 30.7014
-0.0484684 6.36748 30.6473
-0.37186 6.36532 30.6615
-0.480947 6.35991 30.6235
-0.535396 6.35719 30.6044
-0.589781 6.35446 30.5851
-0.858655 6.35439 30.6131
-0.912867 6.35158 30.5931
-0.96701 6.34875 30.5731
2.59667 6.60963 32.2983
2.46348 6.54762 32.0205
2.39801 6.53841 31.9427
2.2033 6.46815 31.5909
2.14621 6.46605 31.5773
2.08228 6.45698 31.5001
2.01859 6.4479 31.4229
1.84324 6.39236 31.2005
1.66623 6.35469 31.0054
1.54681 6.31941 30.8256
1.49119 6.31716 30.8106
1.43561 6.31491 30.7955
1.20199 6.24489 30.4371
1.14715 6.24258 30.4214
1.09235 6.24025 30.4056
1.03288 6.23146 30.3293
0.973663 6.22267 30.2529
0.819061 6.22845 30.3249
0.281961 6.32653 30.7538
0.116972 6.3189 30.7006
0.0620886 6.31633 30.6826
-0.0475071 6.31115 30.6464
-0.102218 6.30855 30.6281
-0.370857 6.30887 30.6605
-0.479932 6.3035 30.6224
-0.534375 6.30079 30.6032
-0.588754 6.29808 30.5839
-0.643068 6.29535 30.5645
-0.857587 6.29787 30.6119
-0.911792 6.29508 30.5919
2.45654 6.48267 31.9559
2.3988 6.48063 31.9428
2.33365 6.47156 31.8652
2.08308 6.39985 31.5001
2.01939 6.39088 31.4228
1.90043 6.33783 31.2147
1.84406 6.33567 31.2004
1.54764 6.26327 30.8253
1.49203 6.26103 30.8103
1.43092 6.25227 30.7338
1.37007 6.24349 30.6572
1.09322 6.18469 30.4051
1.03375 6.17601 30.3287
0.974534 6.16733 30.2523
0.819951 6.17294 30.3243
0.765441 6.17056 30.3078
0.28289 6.27013 30.753
-0.856519 6.24137 30.6106
-0.910717 6.23859 30.5906
-0.964847 6.23581 30.5705
2.59823 6.49299 32.2989
2.33443 6.41389 31.8653
2.26954 6.40492 31.7875
2.21206 6.36045 31.6547
2.14781 6.35158 31.5773
1.90124 6.28114 31.2145
1.84487 6.27899 31.2002
1.49286 6.2049 30.81
1.42622 6.18983 30.6721
1.37091 6.18759 30.6568
1.3135 6.13828 30.4672
1.25858 6.13601 30.4517
1.20371 6.13373 30.4361
0.28382 6.21373 30.7522
0.228779 6.21123 30.7346
0.118864 6.20618 30.6989
0.0639905 6.20364 30.6809
-0.0455832 6.19852 30.6446
-0.100282 6.19594 30.6262
-0.36885 6.196 30.6584
-0.477901 6.19069 30.6203
-0.532331 6.18801 30.601
-0.586697 6.18533 30.5817
-0.640999 6.18263 30.5622
-0.749405 6.17721 30.523
-0.85545 6.18487 30.6094
-0.909642 6.18211 30.5893
2.5249 6.41871 32.1554
2.46583 6.37395 32.021
2.40037 6.36508 31.9432
2.14861 6.29435 31.5773
2.08467 6.28561 31.5001
2.02099 6.27686 31.4228
1.83294 6.20935 31.0754
1.77683 6.20719 31.0609
1.72076 6.20502 31.0463
1.65669 6.17268 30.881
1.60495 6.1532 30.8396
1.54931 6.151 30.8247
1.20457 6.07815 30.4356
1.03076 6.05897 30.2673
0.976277 6.05665 30.2512
0.821732 6.06194 30.323
0.284751 6.15734 30.7515
0.229715 6.15485 30.7338
0.11981 6.14983 30.6981
0.064942 6.1473 30.6801
-0.0446207 6.14221 30.6437
-0.0993144 6.13965 30.6253
-0.208523 6.13449 30.5883
-0.367846 6.13957 30.6574
-0.476884 6.13429 30.6192
-0.531308 6.13163 30.6
-0.639963 6.12628 30.5611
2.40115 6.3073 31.9434
2.32857 6.29186 31.8012
2.07857 6.22195 31.4368
2.02179 6.21985 31.4228
1.95926 6.16989 31.2286
1.90286 6.16777 31.2143
1.84013 6.15925 31.1376
1.60579 6.09706 30.8394
1.48324 6.08023 30.6866
1.4279 6.07801 30.6714
1.20038 6.01652 30.3748
1.14072 6.0082 30.2986
1.08615 6.00592 30.2827
1.03163 6.00363 30.2667
0.977149 6.00132 30.2506
0.395907 6.10588 30.7858
0.285681 6.10095 30.7507
0.230651 6.09847 30.733
0.120756 6.09348 30.6973
0.0658938 6.09097 30.6792
-0.0436578 6.0859 30.6428
-0.0983459 6.08336 30.6244
-0.366842 6.08315 30.6564
-0.475868 6.0779 30.6181
-0.530286 6.07526 30.5989
-0.638928 6.06994 30.56
-0.853312 6.07189 30.6069
-0.90749 6.06917 30.5868
-0.961599 6.06643 30.5666
2.65893 6.32 32.3126
2.59256 6.31126 32.2344
2.40194 6.24953 31.9435
2.32935 6.2343 31.8014
2.2719 6.23226 31.7879
2.20727 6.18196 31.5911
2.1502 6.17989 31.5774
1.90367 6.11108 31.2142
1.84094 6.10268 31.1375
1.77846 6.09426 31.0606
1.72239 6.09211 31.0459
1.59489 6.02869 30.7164
1.53946 6.02651 30.7014
1.48408 6.02431 30.6863
1.37102 5.97373 30.4814
1.31606 5.9715 30.4659
1.26116 5.96926 30.4504
1.20124 5.96105 30.3743
1.14158 5.95284 30.2981
0.396828 6.04947 30.7851
0.286612 6.04457 30.75
0.231587 6.0421 30.7323
0.121703 6.03714 30.6965
0.066846 6.03464 30.6784
-0.0426947 6.02961 30.6419
-0.0973771 6.02707 30.6235
-0.206563 6.02198 30.5864
-0.365837 6.02673 30.6554
-0.474851 6.02151 30.6171
-0.529262 6.01889 30.5978
-0.637892 6.0136 30.5588
-0.746259 6.00828 30.5195
-0.852243 6.01541 30.6057
-1.41169 6.07896 30.8665
2.59334 6.25305 32.2347
2.46046 6.19377 31.957
2.40272 6.19176 31.9437
2.20807 6.12473 31.5912
2.08016 6.10793 31.4368
1.83537 6.03993 31.075
1.77927 6.0378 31.0604
1.66312 5.98696 30.8537
1.60158 5.97878 30.7775
1.31692 5.91592 30.4655
1.19704 5.89973 30.3135
1.14244 5.89748 30.2977
0.460312 6.00782 30.9275
0.287544 5.98819 30.7493
0.232523 5.98574 30.7315
0.177558 5.98327 30.7136
0.12265 5.9808 30.6957
0.0677984 5.97831 30.6776
-0.0417312 5.97331 30.6411
-0.096408 5.97079 30.6226
-0.205583 5.96573 30.5855
-0.473834 5.96513 30.616
-0.528239 5.96252 30.5967
2.60212 6.20139 32.3005
2.46124 6.13599 31.9572
2.33092 6.11919 31.8017
2.13777 6.05298 31.4507
2.08096 6.05092 31.4368
1.96169 5.99982 31.2283
1.9053 5.99772 31.214
1.83618 5.98347 31.0749
1.60241 5.92275 30.7772
1.54112 5.91467 30.7008
1.48014 5.90661 30.6246
1.1979 5.84437 30.313
1.1433 5.84213 30.2972
1.08394 5.83416 30.2212
0.453849 5.93907 30.8012
0.39867 5.93666 30.7837
0.288475 5.93182 30.7485
0.23346 5.92938 30.7308
0.1785 5.92693 30.7129
0.123597 5.92447 30.6949
0.068751 5.922 30.6768
-0.0407675 5.91702 30.6402
-0.0954387 5.91452 30.6218
-0.204602 5.90948 30.5845
-0.472816 5.90876 30.615
-0.527215 5.90616 30.5956
-0.635819 5.90095 30.5566
-0.744159 5.89569 30.5171
-0.916976 5.93465 30.638
-0.971158 5.93196 30.6177
-2.05372 6.08734 31.4263
2.66126 6.14503 32.3137
2.58689 6.13018 32.1699
2.38918 6.06365 31.8153
2.3317 6.06164 31.8019
2.26675 6.0123 31.6051
2.20966 6.01027 31.5914
2.13856 5.99597 31.4508
1.9625 5.94314 31.2283
1.89313 5.92911 31.0892
1.83699 5.927 31.0748
1.59737 5.86091 30.7156
1.54195 5.85875 30.7006
1.48097 5.8508 30.6243
1.42855 5.80914 30.4957
1.37357 5.80695 30.4802
1.19875 5.78901 30.3126
0.458461 5.88862 30.8633
0.399592 5.88026 30.783
0.344472 5.87786 30.7655
0.289407 5.87545 30.7478
0.234397 5.87302 30.73
0.179442 5.87059 30.7121
0.124545 5.86814 30.6941
0.0697039 5.86568 30.6759
-0.0398035 5.86074 30.6393
-0.0944691 5.85825 30.6209
-0.203621 5.85324 30.5836
-0.471798 5.85239 30.614
-0.526191 5.84981 30.5946
-0.634782 5.84463 30.5555
-1.13126 5.87945 30.6824
2.58766 6.07208 32.1702
2.52955 6.07012 32.1572
2.46281 6.02044 31.9577
2.13936 5.93896 31.4509
1.89394 5.87264 31.0891
1.83781 5.87054 31.0746
1.72131 5.82068 30.8679
1.59819 5.80499 30.7154
1.36904 5.74581 30.4195
1.30893 5.73806 30.3436
1.25425 5.73586 30.3279
1.19961 5.73366 30.3121
0.927106 5.72248 30.2316
0.235334 5.81667 30.7293
0.070657 5.80937 30.6751
-0.0388394 5.80446 30.6385
-0.0934992 5.80199 30.62
-0.202639 5.79701 30.5827
-1.13017 5.82277 30.6811
-1.18428 5.82008 30.6603
2.4636 5.96267 31.9579
2.39074 5.94853 31.8158
2.19699 5.88398 31.4648
2.14015 5.88195 31.4509
2.02054 5.83184 31.2424
1.95091 5.81824 31.1035
1.65447 5.75119 30.7302
1.59902 5.74907 30.7152
1.54361 5.74693 30.7
1.30978 5.68269 30.3432
1.2551 5.6805 30.3275
1.19043 5.66745 30.1916
0.927984 5.66718 30.231
0.4603 5.7756 30.862
0.401435 5.76748 30.7817
0.346325 5.76511 30.7641
0.29127 5.76272 30.7464
0.236271 5.76032 30.7285
0.181327 5.75792 30.7106
0.12644 5.7555 30.6925
0.0716102 5.75307 30.6743
-0.037875 5.74819 30.6376
-0.0925292 5.74573 30.6191
-0.201658 5.74078 30.5818
-0.364891 5.73329 30.5249
-0.524142 5.73713 30.5925
-0.632707 5.73201 30.5533
-0.741008 5.72686 30.5137
-0.9138 5.76503 30.6345
-0.967962 5.7624 30.6142
-1.12908 5.7661 30.6799
-1.18318 5.76343 30.659
2.5892 5.95588 32.171
2.39152 5.89098 31.816
2.26913 5.84061 31.6054
2.19778 5.82696 31.4649
1.95171 5.76177 31.1034
1.89555 5.7597 31.089
1.47785 5.67793 30.5624
1.36534 5.62948 30.3584
1.31063 5.62732 30.3428
1.25595 5.62514 30.3271
0.92437 5.60657 30.1704
0.347252 5.70874 30.7634
0.292203 5.70636 30.7457
0.237208 5.70398 30.7278
0.18227 5.70159 30.7098
0.127388 5.69919 30.6917
0.0725637 5.69677 30.6735
-0.0369104 5.69192 30.6368
-0.091559 5.68948 30.6183
-0.200676 5.68456 30.5809
-0.363891 5.67712 30.5239
-1.12798 5.70944 30.6786
-1.18208 5.70678 30.6578
2.64811 5.89972 32.1843
2.52292 5.84909 31.9717
2.4498 5.8354 31.8296
2.19857 5.76995 31.465
2.14174 5.76793 31.4511
1.89636 5.70324 31.0889
1.82757 5.69011 30.9503
1.7717 5.68803 30.9356
1.7116 5.64144 30.7447
1.65612 5.63934 30.7298
1.36619 5.57411 30.3581
1.31148 5.57195 30.3424
1.25168 5.56456 30.2666
1.19214 5.55716 30.1907
0.929741 5.55661 30.23
-0.911682 5.65199 30.6322
-1.12689 5.65278 30.6774
-1.18098 5.65014 30.6565
2.66514 5.85344 32.3157
2.5237 5.79131 31.972
2.45058 5.77784 31.8299
2.38558 5.77015 31.7524
2.19936 5.71294 31.4652
2.13556 5.70535 31.3881
2.07202 5.69776 31.311
2.01624 5.65633 31.1801
1.95332 5.64883 31.1034
1.89717 5.64677 31.0889
1.76793 5.58759 30.7594
1.71242 5.58551 30.7445
1.65694 5.58342 30.7296
1.2474 5.50417 30.2062
1.19299 5.50201 30.1903
1.14302 5.48341 30.1485
0.926122 5.4962 30.1694
0.45935 5.60067 30.7973
0.404201 5.59835 30.7797
0.349107 5.59601 30.7621
0.294067 5.59367 30.7443
0.239083 5.59131 30.7264
0.184155 5.58895 30.7084
0.129284 5.58657 30.6902
0.074471 5.58419 30.672
0.0197157 5.5818 30.6536
-0.0349809 5.5794 30.6351
-0.0896181 5.57698 30.6166
-0.198712 5.57213 30.5791
-0.361891 5.56479 30.522
-0.521068 5.56814 30.5894
-0.635704 5.58017 30.5773
-0.750263 5.59215 30.5648
-0.910622 5.59547 30.6311
2.45136 5.72028 31.8302
2.38636 5.7127 31.7526
2.32863 5.67091 31.6196
2.26426 5.66342 31.5425
2.20015 5.65592 31.4653
1.95413 5.59236 31.1033
1.89153 5.58499 31.0268
1.59066 5.51506 30.5922
1.42263 5.46549 30.3729
-0.0886474 5.52075 30.6157
-1.1247 5.53948 30.6749
-1.17877 5.53688 30.654
2.65043 5.72541 32.1855
2.57639 5.71217 32.0421
2.51746 5.67021 31.9082
2.45214 5.66272 31.8305
2.20094 5.59891 31.4654
2.13714 5.59155 31.3883
1.89233 5.52864 31.0268
1.82998 5.52137 30.9501
1.78199 5.48594 30.8818
1.71406 5.47366 30.7442
1.65264 5.46651 30.6682
1.2491 5.39388 30.2054
-0.748197 5.47946 30.5627
-0.908503 5.48247 30.6288
2.51824 5.61255 31.9085
2.45292 5.60517 31.8308
2.39543 5.60322 31.8173
2.20173 5.5419 31.4656
2.13793 5.53465 31.3885
2.01865 5.4866 31.1801
0.507141 5.46747 30.8673
0.45698 5.44836 30.8226
0.406968 5.42925 30.7779
0.351889 5.42695 30.7601
0.241896 5.42234 30.7243
0.186984 5.42002 30.7062
0.13213 5.41769 30.688
0.0773326 5.41535 30.6697
0.0225939 5.413 30.6513
-0.0320858 5.41065 30.6327
-0.0867059 5.40828 30.6141
-0.195765 5.40353 30.5764
-0.250202 5.40114 30.5575
-0.364726 5.41314 30.5462
-0.524034 5.4161 30.6137
-0.638753 5.42807 30.6016
-0.747163 5.42312 30.5616
-0.907443 5.42597 30.6277
-1.35195 5.46058 30.772
2.65197 5.60921 32.1864
2.4537 5.54761 31.8311
2.38869 5.54036 31.7534
2.32747 5.51616 31.6479
2.26664 5.49206 31.543
2.20252 5.4849 31.4657
2.14571 5.48291 31.4517
0.970149 5.26354 30.0043
-0.906382 5.36948 30.6266
-1.12142 5.36959 30.6712
-1.17547 5.36705 30.6502
-1.35083 5.40371 30.7707
2.65274 5.5511 32.1868
2.5198 5.49721 31.9092
1.55356 5.34242 30.8747
1.49791 5.34035 30.8593
1.43963 5.29559 30.6673
1.38012 5.30997 30.6781
1.32917 5.2914 30.636
1.03436 5.21999 30.1397
-0.745096 5.31047 30.5595
-1.34972 5.34685 30.7695
2.71166 5.49489 32.2003
1.85089 5.34904 31.2535
1.67785 5.29994 31.0292
1.26444 5.22414 30.4976
1.20953 5.22204 30.4816
0.981019 5.16278 30.1229
0.509833 5.29802 30.8658
0.454563 5.29579 30.8482
0.399348 5.29354 30.8304
0.344188 5.29129 30.8126
0.234034 5.28676 30.7766
0.179042 5.28448 30.7584
0.0692316 5.2799 30.7218
0.014414 5.27759 30.7032
-0.0403442 5.27528 30.6846
-0.0950424 5.27296 30.6659
-0.14968 5.27063 30.647
-0.204256 5.2683 30.6281
-0.258771 5.26595 30.609
-0.367612 5.26124 30.5705
-0.527051 5.26379 30.6382
-0.63569 5.25898 30.5986
-0.744062 5.25415 30.5585
-1.34861 5.29 30.7682
2.71243 5.43679 32.2008
2.6462 5.42977 32.1226
2.39855 5.37302 31.8185
2.21192 5.35722 31.6487
2.15849 5.33846 31.6068
2.09825 5.31482 31.5013
2.03457 5.30797 31.4235
1.97121 5.30114 31.346
1.9081 5.2943 31.2682
1.73465 5.24555 31.0442
1.67867 5.24352 31.0291
1.5552 5.23004 30.8744
1.26528 5.16851 30.4973
1.21038 5.16642 30.4813
1.09999 5.12078 30.2754
1.03609 5.10982 30.1389
-0.688883 5.20024 30.5776
-0.743028 5.19783 30.5575
-1.18558 5.23095 30.7021
-1.3475 5.23315 30.767
2.7132 5.37868 32.2013
2.64697 5.37178 32.123
2.581 5.36487 32.0446
2.52654 5.34604 32.003
2.45681 5.31739 31.8324
2.39933 5.31547 31.8188
2.09211 5.25296 31.438
2.03537 5.25099 31.4237
1.97201 5.24427 31.346
1.9089 5.23754 31.2683
1.6117 5.17589 30.8896
1.55602 5.17386 30.8743
1.50039 5.17181 30.8588
1.43792 5.14431 30.6931
1.3869 5.12594 30.651
1.32639 5.11941 30.5741
1.26613 5.11289 30.497
1.09603 5.06116 30.2149
1.03695 5.05474 30.1384
0.982759 5.05264 30.122
0.511627 5.18507 30.8648
-0.365644 5.14879 30.5688
-0.525035 5.15102 30.6363
-0.633649 5.14629 30.5966
-0.687855 5.14391 30.5766
-0.741994 5.14152 30.5565
-0.902141 5.14359 30.6222
2.5151 5.26174 31.8462
2.45759 5.25984 31.8327
2.40012 5.25793 31.8191
1.97281 5.1874 31.3461
1.9097 5.18079 31.2684
1.8533 5.1788 31.2536
1.7923 5.13472 31.0591
1.73629 5.13272 31.0441
1.38774 5.07009 30.6507
1.32191 5.05932 30.5127
1.26697 5.05726 30.4968
0.567833 5.13079 30.8818
0.512524 5.1286 30.8643
0.402069 5.12421 30.8288
0.346923 5.122 30.8109
0.2368 5.11756 30.7748
0.181824 5.11532 30.7565
0.0720457 5.11083 30.7197
0.0172445 5.10858 30.7011
-0.0374971 5.10631 30.6825
-0.0921785 5.10404 30.6637
-0.146799 5.10176 30.6447
-0.201358 5.09947 30.6257
-0.255855 5.09718 30.6066
-0.36466 5.09257 30.568
-0.524027 5.09465 30.6354
-0.632628 5.08995 30.5957
-0.686828 5.08759 30.5756
-0.74096 5.08522 30.5555
-1.34527 5.11948 30.7645
2.71473 5.26246 32.2023
2.64851 5.25579 32.124
2.4009 5.20038 31.8194
2.32861 5.18913 31.6773
2.27142 5.18721 31.6634
2.21427 5.18528 31.6494
2.0937 5.13899 31.4383
2.03697 5.13703 31.4239
1.97361 5.13054 31.3463
1.66906 5.06551 30.9047
1.61334 5.0635 30.8894
1.55767 5.06149 30.874
1.26782 5.00164 30.4965
1.20787 4.99536 30.4196
1.09775 4.95079 30.2141
1.03868 4.94459 30.1376
-0.631607 5.03361 30.5947
-0.6858 5.03127 30.5746
-0.739926 5.02892 30.5545
2.7155 5.20436 32.2028
2.64927 5.19779 32.1245
2.58667 5.17446 32.0177
2.52447 5.15122 31.9115
2.45915 5.14473 31.8334
2.40168 5.14283 31.8198
2.0945 5.082 31.4385
2.03777 5.08005 31.4241
1.96774 5.06925 31.2832
1.9113 5.06729 31.2685
1.8549 5.06532 31.2537
1.66987 5.00931 30.9046
1.61416 5.00732 30.8893
1.49574 4.97861 30.7082
1.44466 4.96043 30.666
1.32359 4.94806 30.5122
1.09378 4.89157 30.1537
0.569617 5.01783 30.8809
0.514318 5.01568 30.8633
0.403882 5.01134 30.8278
-0.0902692 4.99145 30.6622
-0.199426 4.98695 30.6242
-0.253911 4.98469 30.605
-0.362692 4.98015 30.5663
-0.522011 4.98191 30.6336
-0.630586 4.97728 30.5938
-0.684773 4.97496 30.5737
-0.738892 4.97263 30.5535
-0.792942 4.97029 30.5331
2.71627 5.14625 32.2034
2.51743 5.08907 31.8474
2.45993 5.08718 31.8338
2.39492 5.08083 31.756
2.33017 5.07447 31.678
2.27298 5.07257 31.664
1.96854 5.01249 31.2833
1.9121 5.01054 31.2686
1.84931 5.00429 31.191
1.79474 4.96545 31.0591
1.73259 4.95928 30.9819
1.67069 4.95311 30.9046
1.3794 4.89444 30.5279
1.32443 4.89243 30.512
0.570509 4.96136 30.8805
0.515215 4.95922 30.8628
0.349658 4.95274 30.8093
0.239567 4.94839 30.773
0.184606 4.9462 30.7547
0.0748596 4.94181 30.7178
0.0200749 4.9396 30.6991
-0.0893146 4.93516 30.6615
-0.143918 4.93293 30.6425
-0.19846 4.93069 30.6234
-0.252939 4.92845 30.6042
-0.361708 4.92394 30.5655
-0.521002 4.92555 30.6327
-0.629565 4.92096 30.5928
-0.683745 4.91866 30.5727
-1.23417 4.9452 30.6751
2.71704 5.08814 32.2039
2.3957 5.02339 31.7563
2.33095 5.01715 31.6783
2.27376 5.01525 31.6643
2.20964 4.97187 31.4675
2.15285 4.96996 31.4532
2.09609 4.96804 31.4389
1.7334 4.90297 30.9819
1.6715 4.89692 30.9046
1.6158 4.89494 30.8892
1.38024 4.83881 30.5277
1.14976 4.78344 30.1693
-0.519995 4.86919 30.6318
-0.628544 4.86464 30.5919
-0.682718 4.86236 30.5717
-0.736824 4.86006 30.5515
-0.790861 4.85777 30.5311
-1.01796 4.88961 30.6304
2.7178 5.03003 32.2045
2.64348 5.01943 32.0608
2.5856 5.01757 32.0475
2.51898 4.97395 31.8482
2.46148 4.97208 31.8346
2.39648 4.96595 31.7567
2.02659 4.9009 31.2982
1.97013 4.89898 31.2836
1.9137 4.89704 31.2688
1.61662 4.83876 30.8892
1.54941 4.82887 30.7501
1.43608 4.78516 30.5433
1.38108 4.78317 30.5275
1.08676 4.71891 30.033
0.572293 4.84843 30.8796
0.517008 4.84631 30.8619
0.351482 4.83992 30.8083
0.24141 4.83563 30.7719
0.18646 4.83348 30.7535
0.0219615 4.82697 30.6978
-0.0874056 4.8226 30.6601
-0.141998 4.8204 30.6411
-0.196528 4.8182 30.6219
-0.250995 4.81599 30.6027
-0.359741 4.81155 30.5638
-0.518987 4.81284 30.631
-0.627523 4.80833 30.591
-0.681691 4.80606 30.5708
-1.23199 4.83194 30.6728
2.51976 4.91639 31.8486
2.46226 4.91453 31.835
2.39725 4.90851 31.7571
2.3325 4.9025 31.679
2.27533 4.90061 31.6649
2.15443 4.85598 31.4537
1.97093 4.84222 31.2838
1.85321 4.79813 31.0742
1.79718 4.79619 31.0592
1.72887 4.78648 30.9198
1.67313 4.78453 30.9045
1.43691 4.72952 30.5431
1.38191 4.72754 30.5273
1.31639 4.7181 30.3897
1.08762 4.66404 30.0327
0.628518 4.79406 30.8968
0.573185 4.79196 30.8792
0.517905 4.78986 30.8615
0.352393 4.78352 30.8077
0.242332 4.77926 30.7713
0.187387 4.77712 30.753
0.0229046 4.77066 30.6972
-0.0864513 4.76632 30.6594
-0.141038 4.76414 30.6403
-0.195562 4.76196 30.6212
-0.250024 4.75977 30.6019
-0.358757 4.75536 30.563
-0.517979 4.7565 30.6301
-1.01585 4.77663 30.6283
-1.2309 4.77532 30.6717
2.7775 4.91564 32.2187
2.70292 4.90548 32.0751
2.46304 4.85698 31.8354
2.39049 4.84704 31.6932
2.33688 4.82884 31.6514
2.28341 4.81064 31.6093
2.21201 4.80088 31.4682
1.79799 4.73977 31.0592
1.72968 4.73028 30.9198
1.67395 4.72834 30.9045
1.61237 4.72264 30.8273
1.37736 4.66828 30.4663
1.31722 4.66268 30.3895
1.20664 4.62016 30.1846
1.14743 4.61467 30.1085
0.574076 4.7355 30.8788
0.518801 4.73342 30.8611
0.0238476 4.71436 30.6965
-0.085497 4.71005 30.6587
-0.140078 4.70789 30.6396
-0.194596 4.70572 30.6205
-0.249052 4.70355 30.6012
-0.357773 4.69918 30.5622
-0.516971 4.70016 30.6292
-0.625482 4.69572 30.5891
-0.679636 4.69349 30.5689
-0.733722 4.69126 30.5486
-0.787739 4.68902 30.5282
-0.908381 4.71697 30.5415
-1.0148 4.72015 30.6273
2.76161 4.84941 32.0888
2.70368 4.84759 32.0757
2.64578 4.84576 32.0624
2.57883 4.80312 31.8631
2.52131 4.80127 31.8495
2.46382 4.79942 31.8358
1.67476 4.67215 30.9045
1.60729 4.66291 30.7654
1.49928 4.62374 30.6197
0.630292 4.68111 30.896
0.574967 4.67905 30.8784
0.519697 4.67698 30.8606
0.350779 4.66702 30.7439
0.18924 4.66442 30.7518
0.0247904 4.65806 30.6959
-0.084543 4.65378 30.658
-0.139118 4.65164 30.6389
-0.19363 4.64949 30.6197
-0.24808 4.64733 30.6004
-0.35679 4.643 30.5614
-0.515964 4.64382 30.6284
-0.624462 4.63942 30.5882
-1.22872 4.6621 30.6694
2.5796 4.74555 31.8635
2.52208 4.74372 31.85
2.17235 4.53406 30.2809
2.1109 4.52888 30.2071
2.05044 4.4897 30.0243
1.87047 4.44087 29.6975
1.8047 4.43275 29.5675
1.73131 4.61788 30.9198
1.67558 4.61596 30.9045
1.37903 4.55723 30.466
1.3189 4.55186 30.3891
1.09018 4.49944 30.0317
0.575859 4.6226 30.878
0.520593 4.62054 30.8602
0.355126 4.61433 30.8063
0.190167 4.60807 30.7513
0.0257331 4.60176 30.6953
-0.0835891 4.59752 30.6574
-0.138158 4.59539 30.6383
-0.192665 4.59326 30.619
-0.247109 4.59112 30.5997
2.77146 4.73745 32.1553
2.70521 4.7318 32.0768
2.63792 4.68981 31.8775
2.30392 4.49251 30.4883
2.23483 4.48415 30.3548
2.11893 4.44328 30.1563
2.05124 4.43512 30.0243
1.87128 4.3868 29.6974
1.37986 4.50171 30.4658
1.26353 4.45683 30.2001
1.20919 4.4549 30.1838
0.687432 4.57021 30.9128
0.521489 4.5641 30.8598
0.356036 4.55794 30.8058
0.191093 4.55173 30.7507
0.0266755 4.54547 30.6947
-0.0826353 4.54126 30.6567
-0.137199 4.53915 30.6376
-0.1917 4.53704 30.6183
-0.246138 4.53492 30.599
-0.300513 4.53279 30.5795
-0.354823 4.53066 30.5599
-0.409069 4.52852 30.5402
-0.51395 4.53117 30.6267
-0.622422 4.52684 30.5865
-0.682801 4.54075 30.5935
-0.736914 4.53857 30.5731
-0.790958 4.53639 30.5526
-0.905271 4.54808 30.5386
-1.01163 4.55073 30.6243
2.77044 4.64314 32.0337
2.43769 4.48483 30.8105
2.30471 4.43721 30.4885
2.23561 4.42906 30.3549
2.05203 4.38055 30.0243
1.99231 4.34232 29.8426
1.92576 4.33456 29.7122
1.87208 4.33273 29.6973
1.2 4.39357 30.064
0.51861 4.50427 30.7965
0.353504 4.49816 30.7424
0.192019 4.49539 30.7502
0.0276178 4.48918 30.6941
-0.0816818 4.48501 30.6561
-0.136239 4.48292 30.6369
-0.190735 4.48082 30.6176
-0.245167 4.47872 30.5982
-0.35384 4.47449 30.5591
-0.40808 4.47238 30.5394
-0.514652 4.47149 30.5628
-0.621402 4.47056 30.5856
2.58958 4.48346 31.2612
2.43847 4.42902 30.8108
2.12052 4.33372 30.1564
1.92657 4.28048 29.7121
1.37613 4.38754 30.4047
1.20085 4.33869 30.0637
0.689195 4.45727 30.9122
0.519503 4.44795 30.7961
0.350966 4.4386 30.6791
0.0285598 4.4329 30.6935
-0.0807286 4.42876 30.6554
-0.13528 4.42669 30.6362
-0.244196 4.42252 30.5975
-1.00951 4.43782 30.6223
-1.11733 4.43346 30.5799
2.77985 4.50883 31.6631
2.05362 4.27139 30.0244
1.25581 4.2857 30.0798
0.520396 4.39163 30.7957
0.351872 4.38243 30.6786
0.0295016 4.37662 30.6929
-0.0797755 4.37252 30.6548
-0.134322 4.37046 30.6356
-0.243226 4.36633 30.5968
-0.297582 4.36426 30.5773
-0.351875 4.36218 30.5576
-0.406102 4.3601 30.5379
-0.51093 4.36222 30.6242
-0.631805 4.38986 30.6387
-0.686016 4.38775 30.6183
-0.740157 4.38563 30.5979
-0.794229 4.3835 30.5773
-0.902162 4.37924 30.5358
-1.00846 4.38137 30.6213
2.86301 4.46332 31.8686
2.71372 4.41173 31.4689
2.44002 4.31741 30.8113
2.23796 4.26379 30.3553
2.05442 4.21682 30.0244
1.92817 4.17233 29.712
1.87451 4.17053 29.697
1.43255 4.27859 30.4205
1.25665 4.23081 30.0796
1.20254 4.22893 30.0632
0.690956 4.34433 30.9116
0.517508 4.33222 30.7324
0.352777 4.32626 30.6782
0.188558 4.32026 30.6229
0.030443 4.32034 30.6923
-0.133363 4.31423 30.635
-0.242255 4.31014 30.5962
-0.296606 4.30809 30.5766
-0.350892 4.30603 30.5569
-0.901126 4.32297 30.5348
-1.0074 4.32493 30.6203
-1.11519 4.32066 30.5778
2.85532 4.40262 31.8051
2.71448 4.35488 31.4695
2.64177 4.34695 31.3305
2.58411 4.31087 31.2004
2.4408 4.2616 30.8117
2.23875 4.2087 30.3555
2.17742 4.17117 30.1712
2.05521 4.16225 30.0245
1.92898 4.11826 29.712
1.86914 4.11391 29.6394
1.19343 4.16863 29.944
0.518398 4.27601 30.7321
0.353682 4.2701 30.6777
0.189479 4.26415 30.6224
0.0285947 4.26111 30.6289
-0.738126 4.27297 30.5962
-0.792184 4.27088 30.5755
-0.90009 4.2667 30.5339
-1.00635 4.26849 30.6194
-1.11412 4.26426 30.5768
1.86995 4.05994 29.6394
1.42874 4.16503 30.3598
1.31249 4.12288 30.0955
0.6886 4.22852 30.848
0.519287 4.21981 30.7317
0.354586 4.21394 30.6773
0.190399 4.20804 30.6219
0.0267414 4.2021 30.5654
-0.131447 4.2018 30.6337
-0.240316 4.19778 30.5948
-0.294654 4.19576 30.5752
-0.348929 4.19374 30.5555
-0.403137 4.19172 30.5356
-0.682989 4.21871 30.6159
-0.73711 4.21665 30.5953
-0.791162 4.21458 30.5747
-0.899054 4.21044 30.533
-1.00529 4.21206 30.6184
2.24031 4.09853 30.3559
2.04369 4.04817 29.9076
1.98966 4.04641 29.8928
1.93059 4.01012 29.7119
1.87075 4.00598 29.6393
1.19511 4.05929 29.9435
0.685359 4.16938 30.7848
0.520177 4.1636 30.7314
0.355491 4.15779 30.6769
0.191318 4.15193 30.6214
0.0276775 4.14604 30.5649
-0.79014 4.15829 30.5738
-0.898019 4.15419 30.5321
-1.00424 4.15563 30.6175
-1.11199 4.15149 30.5748
2.93217 4.23797 31.9485
2.85759 4.23045 31.807
2.58643 4.14158 31.2017
2.43571 4.0916 30.7519
2.24109 4.04345 30.3561
2.11186 4.00029 30.0394
1.93139 3.95606 29.7119
1.87773 3.9543 29.6968
1.42492 4.05188 30.2991
1.24984 4.00644 29.9598
-0.680972 4.10604 30.6143
-0.73508 4.10402 30.5937
-0.789119 4.102 30.573
-0.896984 4.09794 30.5312
-1.00319 4.09921 30.6165
2.85835 4.17306 31.8077
2.5794 4.08256 31.1401
2.42906 4.03342 30.6915
2.30386 3.99249 30.4304
2.11265 3.94572 30.0395
2.04527 3.93942 29.9078
1.86618 3.89587 29.5817
1.42574 3.99667 30.2991
1.36919 3.96001 30.1112
0.691231 4.05946 30.8472
0.521954 4.05121 30.7307
0.467013 4.0493 30.7126
0.357298 4.04549 30.6761
0.193157 4.03973 30.6205
0.0295487 4.03395 30.5638
-0.128575 4.03318 30.6319
-0.29173 4.02731 30.5732
-0.35195 4.0409 30.5806
-0.412201 4.05448 30.5878
-0.520573 4.05052 30.5476
-0.679964 4.04971 30.6135
-0.734066 4.04771 30.5929
-0.788098 4.04571 30.5722
-0.895949 4.04169 30.5304
2.04606 3.88505 29.9078
0.751606 4.00747 30.9276
0.692107 4.00312 30.847
0.522843 3.99501 30.7304
0.467906 3.99313 30.7123
0.358201 3.98934 30.6757
0.194076 3.98364 30.62
-0.894914 3.98546 30.5295
-1.05497 3.98438 30.5934
2.85986 4.05827 31.8091
2.64633 4.0071 31.3336
2.22952 3.87385 30.2378
2.11423 3.83657 30.0398
2.04684 3.83068 29.9079
1.86779 3.78815 29.5817
-0.677949 3.93707 30.612
-0.732037 3.93511 30.5913
-0.786056 3.93315 30.5705
-0.89388 3.92922 30.5286
2.86061 4.00088 31.8098
2.77667 3.95859 31.4869
2.5817 3.91358 31.1415
2.29908 3.82483 30.3714
2.11502 3.78199 30.0399
2.04763 3.77631 29.9081
1.48277 3.8328 30.315
1.4259 3.79708 30.1271
1.36638 3.79328 30.0514
0.693858 3.89044 30.8465
0.634638 3.88633 30.7657
0.524618 3.88263 30.7298
0.469691 3.88078 30.7116
0.360007 3.87706 30.6749
0.30525 3.8752 30.6564
0.195912 3.87146 30.6191
0.0323529 3.86583 30.5623
-0.125707 3.8646 30.6301
-0.300686 3.88969 30.6257
-0.35502 3.88778 30.6058
-0.409288 3.88586 30.5859
-0.517623 3.88203 30.5455
-0.676942 3.88076 30.6112
-0.731024 3.87882 30.5905
-0.785036 3.87688 30.5697
2.93596 3.94991 31.9522
2.72058 3.90002 31.474
2.29986 3.76974 30.3717
2.04842 3.72194 29.9082
1.99441 3.72024 29.8932
1.9354 3.68575 29.712
1.36721 3.73849 30.0513
0.694733 3.8341 30.8463
0.635516 3.83012 30.7655
0.470583 3.82461 30.7113
0.360909 3.82093 30.6746
0.306157 3.81908 30.6561
0.19683 3.81537 30.6187
-0.675935 3.82445 30.6105
-0.730011 3.82254 30.5897
-0.784016 3.82062 30.5689
-0.891813 3.81677 30.5269
-1.05846 3.83073 30.6182
2.17088 3.67454 30.0549
2.1166 3.67285 30.0402
-0.407347 3.77347 30.5846
-0.515658 3.76972 30.5442
-0.674929 3.76815 30.6097
-0.728998 3.76625 30.589
-0.782997 3.76436 30.5681
-1.4406 3.78456 30.7499
2.56851 3.74067 31.0194
2.41894 3.69606 30.5727
2.05 3.61321 29.9084
1.996 3.61153 29.8935
1.36356 3.62716 29.9916
0.692348 3.71949 30.7829
0.63727 3.71769 30.765
0.527279 3.71409 30.7289
0.472366 3.71228 30.7107
0.362712 3.70866 30.6739
0.30797 3.70685 30.6553
0.198664 3.70322 30.6179
0.0351533 3.69775 30.5608
-0.134476 3.72654 30.6832
-0.297813 3.72099 30.624
-0.352128 3.71914 30.604
-0.406378 3.71729 30.584
-0.514676 3.71357 30.5435
2.92965 3.77501 31.8903
2.56928 3.68454 31.0199
2.10482 3.5605 29.9235
2.05079 3.55884 29.9086
1.99679 3.55718 29.8936
1.92522 3.52053 29.5969
1.36439 3.57247 29.9915
-0.513694 3.65743 30.5429
-0.672918 3.65556 30.6083
-0.780959 3.65185 30.5666
-0.888715 3.64813 30.5245
-1.06201 3.67681 30.6432
2.9304 3.7175 31.8911
2.86438 3.71389 31.8135
2.70747 3.6689 31.3508
2.43522 3.58858 30.6945
2.23418 3.54455 30.2393
2.17324 3.5108 30.0555
2.11229 3.50764 29.9822
1.91978 3.46525 29.5397
-0.295899 3.60855 30.6229
-0.40444 3.60493 30.5828
-0.45861 3.60311 30.5625
-0.512713 3.60129 30.5422
-0.779941 3.5956 30.5658
-1.45151 3.64519 30.803
2.92257 3.65815 31.8276
2.43599 3.53298 30.6949
2.11307 3.45317 29.9824
2.05236 3.45012 29.9089
1.48511 3.46934 30.1431
0.694961 3.55082 30.7824
0.639897 3.54907 30.7644
0.529935 3.54557 30.7282
0.475037 3.54381 30.7099
0.420196 3.54205 30.6915
0.365412 3.54029 30.6729
0.310686 3.53853 30.6543
0.256019 3.53677 30.6356
0.201411 3.535 30.6167
0.0266791 3.55976 30.6135
-0.131658 3.55771 30.6817
-0.294943 3.55234 30.6223
-0.403472 3.54875 30.5822
-0.457636 3.54696 30.5619
-0.511732 3.54516 30.5416
1.98631 3.39152 29.7775
1.42085 3.41007 30.0077
1.35633 3.40574 29.8728
-0.402504 3.49258 30.5816
-0.456662 3.49081 30.5613
-0.510752 3.48903 30.541
-0.777907 3.48313 30.5644
-0.898638 3.50975 30.5768
-1.05889 3.50745 30.6408
2.92407 3.54333 31.8293
2.70974 3.49893 31.3528
2.64408 3.46459 31.1598
2.49298 3.42341 30.71
2.43752 3.42177 30.6958
2.22959 3.37863 30.1809
2.17559 3.34707 30.0562
2.10796 3.34301 29.9242
1.92841 3.30509 29.5973
1.41092 3.3529 29.8891
-0.0259359 3.44579 30.5933
-0.129783 3.44517 30.6808
-0.293032 3.43992 30.6213
-0.401537 3.43641 30.581
-0.455688 3.43466 30.5607
-0.509773 3.4329 30.5403
-1.05785 3.45101 30.64
-1.44826 3.47471 30.8002
2.78348 3.44677 31.493
2.43091 3.3649 30.6357
2.36095 3.33065 30.3888
2.10874 3.28864 29.9245
2.05472 3.28703 29.9095
1.47652 3.30231 30.0239
0.853187 3.41705 30.8895
0.797878 3.41535 30.8719
0.687421 3.41195 30.8361
0.637397 3.39536 30.791
0.582353 3.39366 30.7729
0.527365 3.39195 30.7546
0.472434 3.39025 30.7362
0.417559 3.38854 30.7178
0.362742 3.38683 30.6992
0.302569 3.4 30.7075
0.247821 3.39829 30.6887
0.193132 3.39657 30.6698
0.138504 3.39486 30.6507
0.0294301 3.39142 30.6123
-0.0250139 3.38971 30.5929
-0.133713 3.38626 30.5538
-0.292077 3.38372 30.6208
-0.40057 3.38025 30.5805
-0.454716 3.37852 30.5602
-0.508793 3.37678 30.5397
-1.05681 3.39458 30.6392
-1.27146 3.39017 30.6805
2.05551 3.23268 29.9097
1.47733 3.24761 30.024
0.872851 3.33346 30.9613
-0.399604 3.32409 30.5799
-0.453743 3.32238 30.5596
-0.507815 3.32067 30.5392
-0.774859 3.31445 30.5622
-0.895595 3.34088 30.5746
-1.05577 3.33814 30.6384
-1.44609 3.36108 30.7983
2.43982 3.25497 30.6972
2.2319 3.21429 30.1819
2.17794 3.18335 30.057
2.11031 3.1799 29.9249
2.05629 3.17832 29.9099
1.91829 3.14181 29.4829
0.24961 3.28594 30.6882
0.194931 3.28426 30.6692
0.0857567 3.2809 30.6309
0.0312616 3.27922 30.6115
-0.0231713 3.27754 30.5921
-0.131848 3.27417 30.5529
-0.29017 3.27133 30.6198
-0.398638 3.26794 30.5794
-0.452771 3.26625 30.559
-0.506837 3.26455 30.5386
-1.05473 3.28172 30.6376
-1.28319 3.30714 30.7343
-1.44501 3.30428 30.7974
2.78574 3.27614 31.4952
2.63138 3.23713 31.0384
2.42581 3.19743 30.5766
2.35607 3.16446 30.3304
2.11109 3.12553 29.9252
2.05708 3.12396 29.9101
1.53866 3.14065 30.0999
0.855714 3.24797 30.8895
0.800418 3.24632 30.8717
0.689988 3.24301 30.8359
0.634854 3.24136 30.8178
0.524753 3.23805 30.7812
0.469787 3.23639 30.7628
0.414879 3.23474 30.7442
0.360028 3.23308 30.7256
0.305236 3.23142 30.7068
0.250503 3.22976 30.6879
0.19583 3.2281 30.6689
0.141218 3.22644 30.6498
0.0866663 3.22478 30.6305
0.0321765 3.22312 30.6112
-0.0222509 3.22146 30.5917
-0.130916 3.21814 30.5525
-0.289217 3.21514 30.6193
-0.397673 3.21179 30.5789
-0.893568 3.22833 30.5732
-1.05369 3.2253 30.6369
2.7783 3.21825 31.433
2.57611 3.1794 31.025
2.4968 3.14534 30.7125
2.34965 3.10866 30.2712
2.29499 3.10709 30.2566
2.24037 3.10552 30.2419
2.04479 3.06815 29.7937
1.93238 3.03582 29.5979
1.46881 3.08199 29.9055
-0.129985 3.1621 30.5521
-0.288265 3.15895 30.6188
-0.396709 3.15565 30.5784
-0.45083 3.15399 30.5579
-0.504882 3.15234 30.5374
-0.78473 3.17539 30.6151
-0.83868 3.17372 30.5938
-0.892556 3.17206 30.5725
-1.05266 3.16888 30.6361
2.23421 3.04995 30.1829
2.18029 3.01963 30.0579
2.11265 3.0168 29.9257
0.471533 3.12392 30.7625
0.252289 3.11743 30.6874
0.197626 3.11581 30.6684
0.143024 3.11418 30.6492
0.0884836 3.11256 30.6299
0.0340047 3.11094 30.6105
-0.0204117 3.10931 30.591
-0.129054 3.10607 30.5517
-0.287313 3.10276 30.6184
-0.395745 3.0995 30.5778
-0.44986 3.09787 30.5574
-0.503906 3.09624 30.5369
-1.05162 3.11247 30.6354
-1.28002 3.1372 30.7319
2.91225 3.13966 31.7072
2.4281 3.03121 30.578
2.29653 2.99732 30.2574
2.11343 2.96244 29.926
2.04635 2.95983 29.7942
1.52428 2.97453 29.922
0.862675 3.07965 30.953
0.802953 3.0773 30.8717
0.747724 3.0757 30.8538
0.692549 3.07409 30.8357
0.637429 3.07249 30.8175
0.582365 3.07089 30.7993
0.527356 3.06929 30.7809
0.472405 3.06768 30.7624
0.417511 3.06608 30.7437
0.362676 3.06447 30.725
0.307899 3.06287 30.7061
0.253181 3.06127 30.6872
0.198524 3.05966 30.6681
0.143927 3.05806 30.6489
0.0893914 3.05645 30.6296
0.0349179 3.05485 30.6102
-0.019493 3.05325 30.5907
-0.128124 3.05004 30.5513
-0.782735 3.06277 30.6138
-0.83667 3.06115 30.5925
-0.890533 3.05953 30.5712
-1.05058 3.05606 30.6347
2.6344 3.01258 31.041
2.55455 2.98005 30.7285
2.49908 2.9785 30.7142
2.35195 2.94396 30.2725
2.04713 2.90567 29.7945
1.98819 2.87578 29.6137
1.52508 2.92002 29.9221
-0.0185749 2.99718 30.5903
-0.127195 2.99401 30.5509
-0.285412 2.99041 30.6175
-0.393819 2.98723 30.5769
-0.447922 2.98564 30.5564
-0.501956 2.98406 30.5358
-0.555921 2.98247 30.5151
-0.781738 3.00647 30.6132
-0.835667 3.00487 30.5919
-1.04955 2.99966 30.6339
2.76497 2.98995 31.3104
2.22959 2.88521 30.1248
2.16903 2.85522 29.9416
0.864357 2.96674 30.9531
0.80464 2.96463 30.8717
0.74942 2.96306 30.8537
0.694254 2.96149 30.8356
0.639143 2.95992 30.8174
0.584088 2.95836 30.7991
0.529089 2.95679 30.7807
0.474147 2.95522 30.7621
0.419263 2.95365 30.7434
0.364437 2.95208 30.7247
0.30967 2.95052 30.7058
0.254963 2.94895 30.6868
0.14573 2.94582 30.6484
0.091205 2.94425 30.629
0.0367424 2.94268 30.6096
-0.0176574 2.94112 30.59
-0.126266 2.93799 30.5505
-0.392857 2.9311 30.5764
-0.446954 2.92953 30.5559
-0.888513 2.94702 30.5699
-1.04851 2.94326 30.6332
-1.27686 2.9673 30.7296
2.43037 2.865 30.5796
1.59197 2.81302 30.0572
0.860752 2.90985 30.8896
0.805482 2.9083 30.8717
0.750266 2.90675 30.8537
0.695105 2.9052 30.8356
0.639999 2.90364 30.8174
0.584948 2.90209 30.799
0.529954 2.90054 30.7806
0.475017 2.89899 30.762
0.420138 2.89744 30.7433
0.365317 2.89589 30.7245
0.310555 2.89434 30.7056
0.255853 2.89279 30.6866
0.14663 2.8897 30.6482
0.0921109 2.88815 30.6288
0.0376537 2.88661 30.6093
-0.0167406 2.88506 30.5897
-0.125338 2.88197 30.5502
-0.833661 2.89233 30.5907
-0.887504 2.89078 30.5692
-1.04748 2.88687 30.6325
2.55682 2.81318 30.7303
2.50136 2.81166 30.7159
2.2996 2.77777 30.2591
2.04946 2.7432 29.7953
1.98293 2.74143 29.6638
1.58137 2.75797 29.9387
1.52196 2.75632 29.8634
0.585808 2.84583 30.799
0.530819 2.8443 30.7805
0.475887 2.84277 30.7619
0.421012 2.84123 30.7432
0.366196 2.8397 30.7244
0.31144 2.83817 30.7054
0.256743 2.83664 30.6864
0.14753 2.83359 30.6479
0.0930161 2.83206 30.6285
0.0385643 2.83053 30.609
-0.0158245 2.82901 30.5894
-0.124411 2.82596 30.5498
-0.178607 2.82444 30.5299
-0.44502 2.81733 30.555
-0.505228 2.83023 30.5615
-0.565462 2.84313 30.5679
-0.673335 2.84008 30.526
-0.778751 2.83759 30.6115
-0.83266 2.83606 30.5901
-0.886495 2.83453 30.5686
-1.27476 2.85407 30.7281
2.77534 2.82052 31.3755
2.69346 2.78953 31.0579
2.49461 2.75587 30.6559
2.17135 2.69209 29.9427
0.862426 2.79716 30.8898
0.807165 2.79564 30.8718
0.751958 2.79412 30.8538
0.696806 2.79261 30.8356
0.641709 2.79109 30.8174
0.586667 2.78957 30.799
0.531683 2.78806 30.7804
0.476755 2.78654 30.7618
0.421886 2.78503 30.7431
0.367075 2.78352 30.7242
0.312323 2.782 30.7053
0.257631 2.78049 30.6862
0.148429 2.77747 30.6477
0.0939206 2.77597 30.6283
0.0394742 2.77446 30.6088
-0.0149091 2.77295 30.5891
-0.123484 2.76995 30.5495
-0.177675 2.76845 30.5295
-0.831659 2.7798 30.5895
-0.885488 2.7783 30.568
-1.04541 2.7741 30.6312
-1.27371 2.79745 30.7274
2.84934 2.76575 31.5163
2.69421 2.73338 31.0587
2.48786 2.70028 30.5958
2.17213 2.63772 29.943
2.1048 2.63634 29.8111
2.04452 2.63493 29.7378
1.59439 2.64886 30.0578
0.863262 2.74082 30.8899
0.808006 2.73932 30.8719
0.752803 2.73782 30.8538
0.697655 2.73631 30.8356
0.642562 2.73481 30.8173
0.587526 2.73332 30.7989
0.477623 2.73032 30.7618
0.422759 2.72883 30.743
