ply
format ascii 1.0
comment PCL generated
element vertex 1592
property float x
property float y
property float z
element camera 0
property float view_px
property float view_py
property float view_pz
property float x_axisx
property float x_axisy
property float x_axisz
property float y_axisx
property float y_axisy
property float y_axisz
property float z_axisx
property float z_axisy
property float z_axisz
property float focal
property float scalex
property float scaley
property float centerx
property float centery
property int viewportx
property int viewporty
property float k1
property float k2
end_header
3.3030729 2.2377782 36.140606
3.2951183 2.2314246 36.082855
3.2873678 2.2250698 36.025063
3.2720928 2.2123353 35.909519
3.2646637 2.2059534 35.851723
3.2993832 2.1805563 35.648151
3.2792168 2.1613309 35.474926
3.3165636 2.1358984 35.27219
2.5475721 2.0390065 33.371243
2.4239435 2.0377033 33.307148
2.1179447 2.0546021 33.06604
2.0128126 2.5120265 37.442474
2.1783543 2.45719 37.299816
2.2871094 2.4370086 37.172188
3.3057852 2.187793 36.204926
3.2898722 2.1751232 36.089394
3.2821236 2.1687689 36.031612
3.266942 2.1560535 35.916027
3.259614 2.1496804 35.8582
3.2943439 2.1244226 35.654613
3.3305902 2.099158 35.451534
3.3116341 2.0799518 35.278606
3.3055668 2.0735319 35.220963
3.2938595 2.0606744 35.105659
3.2882137 2.0542376 35.047993
3.2772636 2.0413475 34.93269
3.2617655 2.0219724 34.75975
3.2311935 2.0316436 34.706486
2.5433102 1.9825237 33.377583
2.4197626 1.9810309 33.313484
2.1138344 1.9975138 33.072407
3.3252382 2.1503913 36.384701
3.3168678 2.1440942 36.326969
3.308692 2.1377771 36.269199
3.3005333 2.1314623 36.211468
3.2846298 2.1188128 36.095943
3.2768784 2.1124783 36.038147
3.2544641 2.0934184 35.864708
3.2893047 2.0682981 35.661076
3.3255644 2.0431738 35.457993
3.3191738 2.0367901 35.400337
3.3068027 2.0239944 35.284992
3.3007364 2.0175941 35.227348
3.289032 2.0047672 35.112045
3.2833929 1.9983499 35.054379
3.2725382 1.9854782 34.939037
3.2571392 1.9661329 34.766075
2.5391388 1.9260292 33.383888
2.4155827 1.9243591 33.31982
2.109725 1.9404259 33.078773
2.0006456 2.3940551 37.456551
2.3839951 2.3005412 37.059113
3.2810879 2.1126709 36.538433
3.3283663 2.1003187 36.448994
3.3198891 2.0940416 36.391273
3.3033504 2.0814378 36.27578
3.2952785 2.0751314 36.218002
3.3276701 2.0502203 36.013905
3.3053894 2.0312192 35.840759
3.34056 2.0062644 35.637352
3.3206329 1.9871776 35.464413
3.3142395 1.980813 35.406746
3.3018789 1.9680483 35.29142
3.2958107 1.9616587 35.233772
3.2842064 1.9488599 35.118435
3.2786636 1.942441 35.06073
3.2677183 1.9296119 34.945435
3.2625093 1.9231877 34.887756
3.2524242 1.9103148 34.772438
2.5383835 1.8829205 33.507133
1.9946098 2.3350642 37.463566
2.1604328 2.2812567 37.32074
2.2694216 2.2617466 37.19297
3.1242933 1.8528709 34.72036
3.0672989 1.8785384 34.671333
3.0540428 1.8591118 34.497513
3.0498199 1.8526242 34.439613
3.0458069 1.8461368 34.381687
3.0419044 1.8396311 34.32378
3.0381193 1.8331382 34.265892
2.8587179 1.8570669 34.155346
2.8521204 1.8439693 34.039051
2.8489962 1.8374093 33.980934
2.8460836 1.8308394 33.922798
2.7790327 1.8167472 33.775616
2.7151661 1.8091846 33.686184
2.2635279 2.2033188 37.199886
3.3175755 1.9875908 36.462181
3.2926579 1.9687691 36.288937
3.3405228 1.9566941 36.200043
3.0494051 1.8030651 34.503872
3.045187 1.7966073 34.445972
3.0411749 1.7901299 34.38805
3.0372772 1.7836549 34.330147
3.0335865 1.7771604 34.272224
3.0299206 1.7706788 34.214348
3.0230274 1.7576916 34.098621
2.8741179 1.7716982 34.041492
2.8445511 1.7812328 33.987263
2.8416405 1.7746832 33.929131
2.774684 1.760541 33.781933
2.7109079 1.752898 33.692482
2.3168468 2.138624 37.172981
3.3122196 1.9312108 36.468746
3.3296108 1.9089363 36.40517
3.335186 1.9004731 36.206604
3.3833456 1.8885295 36.117863
3.0446758 1.7470496 34.510269
3.0366354 1.7341216 34.394379
3.0327415 1.7276666 34.336475
3.028964 1.7212036 34.278587
3.0253925 1.7147315 34.22068
2.7702427 1.7043462 33.788284
2.7065592 1.6966233 33.698814
2.7022839 1.6834776 33.582359
2.6736898 1.69297 33.527607
3.0577507 1.7167058 34.748447
3.1105661 1.7049191 34.661983
3.04004 1.6910126 34.516621
3.0320053 1.6781251 34.400738
3.0281172 1.6716897 34.342834
2.8327503 1.6623704 33.941795
2.8299646 1.655864 33.88369
2.8248358 1.6428263 33.767506
2.702116 1.6403592 33.705181
1.6910086 2.1713045 37.767426
1.8594265 2.1180704 37.621758
2.3049726 2.0219886 37.18684
3.2929554 1.8122456 36.424213
3.3805552 1.7825491 36.188545
3.3727837 1.7763045 36.130928
3.0354023 1.6349752 34.52298
3.0273752 1.6221378 34.407097
3.0235815 1.6157019 34.349159
3.0199013 1.6092672 34.291241
3.0163374 1.6028349 34.233334
2.98351 1.6058061 34.121464
2.8341322 1.6191957 34.064434
2.8311138 1.6127143 34.00629
2.8283043 1.6062143 33.948124
2.8255234 1.5997274 33.890026
2.8204937 1.5867388 33.773808
2.6384468 1.5964155 33.543682
1.8531866 2.0588439 37.628876
2.2990885 1.9636598 37.193748
2.3488131 1.9513528 37.10046
3.3042755 1.7683461 36.546364
3.2958879 1.7621157 36.488583
3.3433485 1.7504964 36.399361
3.375227 1.7264278 36.195095
3.3674583 1.7201936 36.137486
3.048172 1.6045249 34.761253
3.1011047 1.5929754 34.674732
3.0306711 1.5789495 34.529369
3.0227423 1.5661414 34.413456
3.0189533 1.5597351 34.355522
3.0152779 1.5533204 34.297604
3.0117168 1.5469089 34.239704
2.8210812 1.5436013 33.896355
2.816061 1.5306523 33.780144
2.6934156 1.5278285 33.717842
2.6913242 1.5213187 33.659569
2.6626244 1.5307217 33.604843
2.6340952 1.5401108 33.550014
2.1241913 1.9293344 37.36272
3.0433388 1.54844 34.767673
3.1537905 1.5319655 34.652596
3.0259428 1.5229332 34.535759
3.0180206 1.5101552 34.419849
3.0143242 1.5037577 34.361881
2.8221235 1.5003827 34.018978
2.8166409 1.4874747 33.902683
2.8116274 1.4745662 33.78648
2.6889715 1.4715745 33.724201
2.2871208 1.8470259 37.207642
3.3645706 1.6141841 36.208195
3.3568001 1.6079803 36.150589
3.0213041 1.4669063 34.54211
3.0133886 1.4541681 34.426205
3.009697 1.4477909 34.36824
3.0025644 1.4350336 34.252392
2.9699259 1.4379432 34.140461
2.817584 1.4442267 34.025337
2.812108 1.4313595 33.90905
1.8344488 1.8811224 37.650196
2.2811356 1.788698 37.214584
2.330987 1.7767465 37.12122
3.3052444 1.577311 36.50256
3.4085121 1.5609977 36.38187
3.4004421 1.5548141 36.324322
3.3591433 1.5580637 36.214779
3.3514681 1.5518677 36.157131
3.1442509 1.4202409 34.665356
3.1399841 1.4139178 34.607555
3.016571 1.4108801 34.5485
3.0087566 1.398181 34.43256
3.0049753 1.391825 34.374634
2.9979439 1.3791068 34.258755
2.8076668 1.3752429 33.915379
2.8027611 1.3624136 33.799149
2.6800852 1.3590763 33.736927
2.6513681 1.3683889 33.682198
2.6228256 1.3776782 33.627361
2.6210384 1.3712063 33.569023
2.1059723 1.7533445 37.383739
3.0289268 1.380173 34.786884
3.1395264 1.3643823 34.671711
3.1352625 1.3580797 34.613918
3.0117493 1.3548753 34.554924
3.0040312 1.3421948 34.43895
3.000349 1.3358572 34.380985
2.8085003 1.3319161 34.038055
2.803133 1.3191271 33.921741
2.7983246 1.3063369 33.805481
2.6757345 1.3028204 33.743248
2.0998688 1.6946714 37.390755
3.3408117 1.4396341 36.170231
3.0646896 1.2942603 34.533024
2.9993086 1.2862184 34.445339
2.9956245 1.2799017 34.387383
2.9886971 1.2672527 34.271477
2.9854546 1.2609203 34.213524
2.9561567 1.2701216 34.159519
2.8038654 1.2757714 34.044449
2.7985973 1.2630215 33.928101
2.7937975 1.2502718 33.811848
2.6122408 1.2586372 33.581722
2.3225632 1.6084278 37.201427
3.4002199 1.3988519 36.459229
3.3921452 1.3926971 36.401657
3.3841782 1.3865516 36.344059
3.3507442 1.3958671 36.292137
3.3430586 1.3896995 36.234459
3.3353872 1.3835335 36.176807
3.1298952 1.2526782 34.684502
3.1257277 1.2464044 34.626675
3.059967 1.2383533 34.539394
2.9909039 1.2239459 34.393768
2.7940617 1.2069161 33.934464
2.7893658 1.194205 33.818176
2.6113749 1.2151501 33.704811
2.6094799 1.2087562 33.646454
2.6077948 1.202354 33.588093
1.9206257 1.6270051 37.548294
3.1250782 1.196831 34.690895
3.1209145 1.1905673 34.633068
3.1128407 1.178067 34.517498
2.7946863 1.163481 34.057205
2.7895279 1.1508105 33.94083
2.7870789 1.1444843 33.88269
2.7848368 1.13815 33.824543
2.6033506 1.1460798 33.594456
2.2510185 1.497051 37.249367
3.3246326 1.271306 36.189938
3.1202612 1.1409781 34.697289
3.1160984 1.1347415 34.639465
3.1081228 1.1222677 34.523857
2.9815502 1.1120262 34.406513
2.9485826 1.1148713 34.294598
2.9453325 1.1085985 34.236607
2.9422874 1.1023147 34.178608
2.790144 1.1073363 34.063553
2.7849922 1.0947106 33.947186
2.782546 1.0884049 33.889053
2.6005821 1.0961578 33.65918
2.5989056 1.0898037 33.600819
2.2449389 1.4387159 37.25634
2.295125 1.42747 37.162788
3.4092932 1.2151816 36.473236
3.3678169 1.2182715 36.363846
3.360054 1.2121449 36.306217
3.3448448 1.1998887 36.190952
3.1197166 1.091346 34.761513
3.1154413 1.0851288 34.703678
3.1112862 1.0789123 34.645855
3.1033154 1.066478 34.530254
2.9767342 1.0560839 34.412933
2.9029913 1.0429041 34.01487
2.780365 1.0386212 33.953579
2.7780142 1.0323272 33.895412
2.7757816 1.0260336 33.837269
2.5978298 1.0462036 33.723961
2.5944605 1.0335307 33.607182
2.1887646 1.3915331 37.357121
3.40378 1.1591194 36.479851
3.1148005 1.0354879 34.767937
3.1105328 1.0292909 34.710106
3.1064701 1.0230827 34.652248
3.0986004 1.0106781 34.536613
2.906744 1.005729 34.195293
2.9038973 0.99947238 34.13723
2.8983717 0.9869864 34.021236
2.7758284 0.9825213 33.959934
2.7734814 0.97625041 33.901772
2.7712517 0.96998072 33.843632
2.5900145 0.97726059 33.613544
2.1826725 1.3330677 37.364105
2.1730738 1.3267844 37.304447
3.1015644 0.96726489 34.658676
3.093791 0.95489001 34.543007
3.0251398 0.94025588 34.397663
2.9605865 0.93176055 34.30975
2.9312649 0.94076371 34.255753
2.9021139 0.94974589 34.201649
2.8991785 0.94352341 34.143623
2.893754 0.93107057 34.027599
2.5888281 0.93357778 33.73671
2.5854759 0.92100334 33.619942
2.2265997 1.263705 37.277306
2.2769127 1.2528198 37.183681
3.3926573 1.0469997 36.493111
3.3769522 1.0348275 36.377934
3.3995476 1.0397909 36.29472
3.4149113 1.0386851 36.154095
3.1050634 0.92376328 34.78075
3.1008043 0.91760516 34.722916
3.0967484 0.91143632 34.665066
3.0889826 0.89910197 34.549397
3.0852699 0.89293551 34.491589
3.078289 0.88059449 34.375977
2.8891354 0.87515569 34.033962
2.7643242 0.86411333 33.914524
2.7621956 0.85787916 33.856346
2.7601871 0.85164666 33.798195
2.584281 0.8772738 33.743103
2.581028 0.86473632 33.626301
3.4426003 0.98695779 36.468243
3.3637924 0.97270465 36.326923
3.100153 0.86790681 34.787167
3.0958939 0.86176872 34.729343
3.0918407 0.85562062 34.67149
3.0841732 0.84331536 34.555786
3.0804653 0.83716989 34.497982
2.8898354 0.83161664 34.156376
2.8845158 0.81924319 34.040325
2.7596979 0.80805302 33.920914
2.7575741 0.80184269 33.862743
2.5764894 0.80848289 33.632694
3.0870247 0.79979253 34.677876
3.0792713 0.78753948 34.562222
3.0756588 0.78140426 34.504375
3.0687809 0.76913595 34.388733
2.8908958 0.78800559 34.278904
2.8879499 0.78183699 34.220825
2.8851147 0.77567005 34.162773
2.8798981 0.7633307 34.046688
2.571949 0.7522316 33.639091
2.267911 1.0843775 37.264107
2.2586946 1.0781376 37.204571
3.4313965 0.87504625 36.481506
3.4386225 0.86812663 36.283321
3.3985891 0.87097383 36.173805
3.0902271 0.75620675 34.800049
3.0860691 0.75009632 34.742188
3.0821142 0.74397779 34.684303
3.0781841 0.73787093 34.626465
3.074461 0.73175406 34.568607
3.0708523 0.72563863 34.510765
2.8751841 0.70743108 34.053085
2.7504454 0.69593644 33.933697
2.7484217 0.68976283 33.875488
2.6935797 0.713727 33.824532
2.5674095 0.69598246 33.645481
2.1516485 1.0407531 37.399269
2.1422386 1.0345023 37.339527
3.4258871 0.81907487 36.488106
3.0853138 0.70035005 34.806469
3.0811558 0.69426084 34.748604
3.0772076 0.68816209 34.69072
3.0732784 0.68207574 34.632889
3.0695591 0.67597961 34.575031
2.8813505 0.67603874 34.291714
2.8756771 0.66378188 34.175556
2.8730602 0.65765071 34.117485
2.870471 0.65153313 34.059479
2.74582 0.63988018 33.940079
2.5628672 0.63973498 33.651875
2.1454611 0.98227644 37.406296
2.1359577 0.97604823 37.346577
3.0762424 0.63842535 34.755028
3.0722065 0.6323576 34.697178
3.0683708 0.62628126 34.639309
3.0647469 0.62019515 34.581421
3.0611448 0.61412096 34.523582
3.0543785 0.6019702 34.407913
2.9028502 0.60515428 34.294117
2.8709526 0.60783887 34.181946
2.8683424 0.60173059 34.123882
2.8658495 0.59562492 34.065838
2.6808968 0.58922601 33.720821
2.558238 0.58350062 33.658298
2.1896353 0.91361499 37.319336
3.4146833 0.70714951 36.501369
3.4625063 0.69769955 36.412388
3.4474812 0.68569946 36.297497
3.4401293 0.67969918 36.240036
3.3543043 0.67921233 35.963249
3.3476534 0.67319584 35.905651
3.0752974 0.58866155 34.819374
3.0712376 0.58260107 34.761482
3.0672922 0.57654262 34.703598
3.0634642 0.57048678 34.645733
3.0598431 0.56442177 34.587841
3.0562458 0.55836964 34.530006
2.863534 0.54582298 34.13031
2.8611374 0.53972912 34.072231
2.7364731 0.52778339 33.952892
2.706171 0.5304786 33.840096
2.6763639 0.53315234 33.72718
2.5536938 0.52725625 33.664688
2.2389946 0.82428432 37.312737
2.2894182 0.8143003 37.219105
2.3988409 0.80063891 37.092213
3.408987 0.65119553 36.508045
3.456913 0.64185262 36.41901
3.4418926 0.62987947 36.304115
3.4345388 0.62389398 36.246655
3.427393 0.61789775 36.189163
3.3293762 0.60534787 35.796989
3.3231516 0.59934103 35.739365
3.3111172 0.58731878 35.624081
3.3052244 0.58131552 35.566463
3.2938566 0.56930137 35.451206
3.2630119 0.57801151 35.398357
3.2523651 0.56598663 35.283001
3.2727356 0.54525864 35.220657
3.237421 0.54794073 35.109966
3.0963469 0.51807618 34.821392
3.0883894 0.50600767 34.705708
3.0585566 0.51469254 34.652153
3.0549393 0.50864792 34.594261
3.0513439 0.5026176 34.53643
3.0446825 0.49054146 34.420734
2.8614197 0.49596691 34.194759
2.8588171 0.48990476 34.1367
2.8563309 0.48384523 34.078663
2.8540545 0.47777772 34.020603
2.7317524 0.47174227 33.959309
2.7279463 0.45957851 33.842911
2.7247124 0.44741654 33.72657
2.5490608 0.47102451 33.671112
2.4946747 0.49476779 33.619469
2.5201206 0.47372794 33.557652
2.3701668 0.48258257 33.497669
2.4228516 0.44038904 33.373913
1.9423418 0.46958566 33.07452
3.6600418 13.441594 35.258751
3.4601851 12.856397 35.531124
1.4403563 12.96339 34.575874
1.3675385 12.926566 34.672264
1.3998814 12.869991 34.730022
1.4649992 12.756806 34.845261
3.278924 12.434107 36.033821
3.1951847 12.334002 36.050636
3.1926575 12.273802 36.056187
3.342989 11.768025 34.707756
3.1901255 12.213503 36.061749
3.2878952 11.81199 34.945351
3.3066521 11.704854 34.663643
3.3536997 11.656178 34.512836
3.187521 12.153214 36.067379
3.2448568 11.77537 35.002377
3.1849937 12.093015 36.072933
3.1896133 11.819345 35.242657
3.2488928 11.6896 34.906399
3.2142563 11.685282 34.857075
3.3026209 11.587247 34.673737
3.3090992 11.560886 34.573643
3.1039104 12.052273 36.083855
3.1996365 11.679214 35.064651
3.2665119 11.52405 34.629436
3.1013784 11.991875 36.089432
3.2446842 11.571409 34.916664
2.1091948 11.100172 32.353527
3.0988503 11.931478 36.095005
2.9882078 11.920099 35.946754
3.0774279 11.819688 35.755199
3.2080193 11.50794 34.87241
3.2285633 11.401884 34.590088
2.4000463 11.041409 32.622375
2.1884117 11.029552 32.446674
2.1593437 11.023422 32.39518
2.1303101 11.017294 32.343723
2.1014547 11.011152 32.29216
2.0217581 11.023074 32.20303
3.1795835 11.82535 35.991333
3.1041126 11.599417 35.266857
2.8767738 11.014524 33.189957
2.6088753 11.023471 32.983139
2.5181274 11.006502 32.830769
2.4881258 11.000759 32.779858
3.0938702 11.810675 36.106091
2.983305 11.799287 35.957779
3.1694221 11.38541 34.833168
2.8749495 11.067781 33.521912
2.9270554 10.993412 33.393589
2.9373093 10.967304 33.294964
2.875351 10.956509 33.194511
2.783185 10.940207 33.043476
2.6074715 10.965357 32.987717
3.0544395 11.746553 36.062267
3.0645256 11.475933 35.227737
3.1330853 11.321906 34.78867
3.1888485 11.221041 34.555603
3.0005045 11.030104 33.727173
2.9685745 11.025009 33.677101
2.9366732 11.019918 33.627048
2.9669666 10.914531 33.34972
2.9358177 10.909298 33.299587
2.9047575 10.903958 33.249413
2.8738661 10.898602 33.199123
2.8430691 10.893141 33.148804
2.7817783 10.882292 33.048027
2.7512741 10.876707 32.997585
2.6906414 10.865607 32.896507
2.6006117 10.848532 32.744442
2.4259396 10.872792 32.686855
2.4105816 10.812781 32.556026
2.3812342 10.806794 32.504944
2.3519955 10.800903 32.453823
2.3229294 10.794896 32.402599
2.2650375 10.782766 32.300129
2.0472279 10.8543 32.267807
3.0519867 11.686147 36.06778
2.9363308 11.701166 36.02351
3.0272999 11.412068 35.18325
3.124115 11.28883 34.895123
3.063036 10.981873 33.831882
3.0308475 10.976902 33.781963
2.9988346 10.971817 33.731941
2.9669094 10.966722 33.681862
3.0183983 10.892851 33.553146
3.0280657 10.867065 33.454464
2.9654675 10.856524 33.354336
2.9343195 10.851292 33.304203
2.3218622 10.73675 32.406952
2.822957 11.875545 36.624836
3.0076275 11.648235 36.128185
2.9394169 11.614107 35.924606
3.1290369 11.203701 34.798817
3.0018234 11.023439 34.066208
3.0112267 10.970156 33.985756
3.0613594 10.923584 33.836647
3.057992 10.814169 33.509083
3.0264893 10.809068 33.459141
2.9951506 10.80385 33.409103
2.9639807 10.798617 33.358952
2.9328279 10.793285 33.308823
2.9018469 10.787938 33.258583
2.8709612 10.782582 33.208305
2.8401737 10.77722 33.157986
2.8094797 10.771749 33.10762
2.7789574 10.766264 33.057152
2.7484636 10.760779 33.00671
0.54448891 11.084243 31.960747
3.0470924 11.565335 36.078808
2.9005909 11.549721 35.88028
2.9969645 11.424954 35.585083
3.0928602 11.140083 34.754223
3.1493874 11.040072 34.52095
2.9827366 11.016497 34.271694
3.0918875 10.870265 33.891338
3.0596161 10.865303 33.841473
3.0275097 10.860324 33.791485
2.9936504 10.745845 33.413719
2.9624119 10.740621 33.363636
2.9313393 10.73528 33.313442
2.9003592 10.730032 33.263199
2.8694735 10.724678 33.212921
2.8386917 10.719215 33.162609
2.808073 10.713836 33.112175
2.7775545 10.70835 33.061707
2.7471333 10.702858 33.0112
2.7168083 10.697257 32.960659
2.6865845 10.69165 32.910076
2.6780052 10.662208 32.844971
2.6695232 10.632668 32.779976
2.6397409 10.627032 32.729271
2.6100559 10.62129 32.678535
2.5510654 10.609673 32.576885
2.3778839 10.632576 32.518116
2.3196697 10.620667 32.415718
2.2907906 10.614644 32.364403
2.2619467 10.608622 32.313122
2.189045 10.65053 32.28994
2.0666447 10.655102 32.266582
1.9871902 10.666801 32.177296
1.7853794 10.682767 32.063305
1.6393909 10.711527 32.052761
3.0446472 11.50493 36.084324
2.886898 11.541842 36.094826
3.0692043 11.185827 35.044216
3.0345688 11.181478 34.994461
3.0636749 10.91599 34.175926
3.030901 10.911143 34.125969
3.0901423 10.811986 33.896168
3.0579433 10.807015 33.84623
3.0670071 10.781517 33.747051
3.0548525 10.698274 33.518436
3.0234222 10.693064 33.468441
2.9921627 10.687839 33.418339
2.9609194 10.682613 33.368256
2.9298515 10.677372 33.318058
2.8988724 10.672026 33.26783
1.7844858 10.624308 32.067585
1.6385727 10.652761 32.057014
2.9213743 11.485081 36.150055
3.0548391 11.017396 34.714581
3.094758 10.862151 34.230675
3.0619049 10.85741 34.180767
3.1207523 10.75866 33.950806
3.0884686 10.753697 33.900925
3.0562773 10.748727 33.850994
3.021924 10.635058 33.473057
2.990593 10.629841 33.423023
2.9594297 10.624608 33.372875
2.9283581 10.619368 33.322685
2.8973837 10.61402 33.272449
2.8358669 10.603287 33.171722
2.8052597 10.597907 33.121296
2.774745 10.592422 33.070835
1.7835932 10.565848 32.071869
1.6377583 10.594094 32.061256
1.1586542 10.666494 31.803007
2.7265892 11.676267 36.761181
2.9125443 11.262464 35.604881
2.9817038 11.109627 35.159462
3.0303612 11.062692 35.004799
3.1101742 10.858982 34.486141
3.0558376 10.878456 34.451862
3.0435524 10.849646 34.386383
3.1190052 10.70038 33.955639
3.0867252 10.695417 33.905754
3.0545387 10.690446 33.855831
3.0636806 10.665238 33.75655
2.957943 10.566701 33.377491
2.9268742 10.561362 33.327312
2.8959732 10.556106 33.277004
2.8343945 10.545381 33.176353
2.803853 10.539895 33.125858
2.7430019 10.528907 33.02483
2.7126894 10.523406 32.974293
2.6825457 10.517792 32.923649
2.6525764 10.512259 32.872887
2.5928612 10.500883 32.771339
2.5631914 10.495129 32.720474
2.5041609 10.483599 32.618633
2.3734884 10.486083 32.512711
2.2721987 10.494308 32.457359
2.2433329 10.488276 32.405918
2.2145033 10.482243 32.354511
2.1858511 10.476193 32.302998
2.0410719 10.504311 32.293884
1.9841852 10.491954 32.190315
1.7826986 10.50729 32.07616
1.1579962 10.607315 31.807188
3.0019932 10.945516 34.877903
3.0417023 10.790778 34.391319
3.0910826 10.745008 34.240498
3.0850601 10.637129 33.910515
3.0528641 10.632157 33.860592
3.0620193 10.60705 33.761307
3.0713501 10.581849 33.662224
3.0502167 10.524271 33.532421
3.0188675 10.519154 33.482357
2.9876137 10.513928 33.432262
2.9564505 10.508696 33.382114
2.9253883 10.503456 33.331924
2.8944883 10.4981 33.281631
2.8329868 10.487367 33.18092
1.7818098 10.44883 32.080448
1.3869915 10.540269 31.982193
2.7314749 11.500707 36.55957
2.8162155 11.239467 35.807701
3.0892467 10.686437 34.245415
3.0564709 10.68169 34.195442
3.1479692 10.588666 34.015068
3.1155977 10.583809 33.965229
3.0833206 10.578848 33.915356
3.0512066 10.57387 33.86536
2.9549675 10.450689 33.386742
2.9239731 10.445442 33.336483
2.8930111 10.440195 33.286251
2.8315849 10.429452 33.185474
2.8010492 10.423967 33.134991
2.7402124 10.41308 33.033966
2.7100468 10.407562 32.983292
2.6799078 10.401947 32.932652
2.6499405 10.396315 32.881901
2.6200771 10.390676 32.831112
2.5903139 10.38503 32.780289
2.5606499 10.379277 32.729431
2.2123766 10.366052 32.363213
2.183733 10.360004 32.311707
1.982234 10.375349 32.198959
1.95403 10.369053 32.147072
1.9259377 10.362847 32.095142
1.7809238 10.390372 32.084732
1.1565571 10.488973 31.815699
2.6806011 11.488104 36.728531
3.0712204 10.677966 34.451153
3.0380259 10.673236 34.401184
3.113863 10.52553 33.970062
3.0816593 10.520659 33.920113
3.0495443 10.51568 33.870113
3.0587006 10.490671 33.770832
2.8916016 10.38218 33.290821
2.8301783 10.371439 33.190041
2.7996473 10.366053 33.139549
2.7388859 10.355058 33.038471
2.7086535 10.349548 32.987865
2.6486292 10.338392 32.88641
2.6187668 10.332755 32.835625
2.5890064 10.327109 32.784801
2.5594168 10.321347 32.733879
2.5004807 10.309909 32.631977
2.4711962 10.304026 32.580948
2.4130173 10.292327 32.478706
2.239995 10.314057 32.419098
2.2112484 10.308015 32.36763
2.1826715 10.301861 32.316071
1.9812622 10.317097 32.203281
1.9530611 10.3108 32.151394
1.9250431 10.304587 32.099403
1.3853626 10.422338 31.990753
1.1559114 10.429892 31.819874
2.726306 11.378228 36.570946
2.7557211 11.220041 36.062553
2.8115549 11.11863 35.818539
3.0856495 10.569288 34.255173
3.052803 10.564548 34.205269
3.0570431 10.432583 33.775581
3.0664577 10.407673 33.676399
3.0348597 10.402666 33.626354
3.0034218 10.397447 33.576218
2.9931717 10.368785 33.511192
2.9830809 10.340019 33.446198
2.9519968 10.334778 33.395988
2.9210091 10.329531 33.345734
2.8901215 10.324273 33.295441
2.8287773 10.313523 33.194595
2.7982521 10.308138 33.144112
2.7374954 10.297144 33.043041
2.7073345 10.291626 32.992371
1.9802933 10.258844 32.2076
1.9521656 10.25254 32.155647
1.9240808 10.246334 32.103733
1.7791529 10.273453 32.093307
1.531414 10.335927 32.006153
1.384552 10.363375 31.995035
2.8092632 11.058208 35.823933
3.0838194 10.510817 34.260082
3.0922117 10.485982 34.160007
3.1428204 10.413916 34.02948
3.1104622 10.409061 33.979656
3.0782576 10.40409 33.92971
3.0462208 10.399102 33.87965
3.0553885 10.374393 33.780346
2.981595 10.282112 33.450813
2.9195366 10.271625 33.350365
2.8887157 10.266261 33.300003
2.8273811 10.25561 33.199162
2.7968531 10.250123 33.148685
2.7361755 10.239222 33.047539
2.7060204 10.233705 32.996872
2.6460085 10.222549 32.895424
2.6162214 10.216902 32.844578
2.5864697 10.211255 32.793758
2.5568886 10.205593 32.742836
2.5274086 10.199826 32.691879
2.4980316 10.19405 32.640884
2.2377996 10.197872 32.427876
2.1805668 10.185768 32.32478
2.1236887 10.173544 32.22163
1.9793205 10.200493 32.211929
1.9512005 10.194288 32.159977
1.923192 10.188075 32.107994
1.7782698 10.214995 32.097603
2.6348372 11.299917 36.69569
2.7508869 11.098624 36.07357
2.7709017 10.993574 35.779251
2.8279877 10.893233 35.536789
3.224966 10.576971 34.796303
3.1910458 10.572402 34.746719
3.2474098 10.475745 34.513885
3.073679 10.476906 34.365452
3.0819921 10.452247 34.264999
3.0765991 10.345803 33.934483
3.0445652 10.340915 33.884415
3.05373 10.316304 33.785095
3.0631533 10.291593 33.685898
2.83706 10.172876 33.105347
2.734787 10.181307 33.052113
2.7046337 10.175791 33.001446
2.6446962 10.164626 32.899937
2.6149206 10.159079 32.849083
2.5852356 10.153326 32.79821
2.577528 10.124224 32.732796
2.5480833 10.118458 32.681877
2.5187435 10.112682 32.63092
2.4895792 10.106892 32.579861
2.4315586 10.09519 32.477631
2.2591209 10.116174 32.417847
2.1795149 10.127724 32.329136
2.1227169 10.115491 32.225925
1.9784231 10.142232 32.216183
1.9502373 10.136036 32.164307
1.3281698 10.232216 31.89772
2.5944805 11.234683 36.651215
2.705513 11.059497 36.134529
3.0718479 10.418336 34.370377
3.0801592 10.393675 34.269913
3.0520763 10.258116 33.789856
3.0615788 10.233595 33.690575
3.0299826 10.22849 33.640549
2.9986258 10.223362 33.59034
2.9785595 10.166209 33.460133
2.9166517 10.155705 33.35955
2.8858414 10.150439 33.309189
2.8356686 10.115063 33.109905
2.6573706 10.054248 32.82436
2.5395479 10.031446 32.620892
2.5104208 10.025658 32.569866
1.9493465 10.077774 32.168564
1.9213467 10.071562 32.116589
1.7765779 10.098066 32.106117
1.7210789 10.085276 32.001575
1.5288286 10.159745 32.019043
1.327446 10.173342 31.901936
3.078331 10.335104 34.274837
3.086812 10.310659 34.174664
3.095541 10.286114 34.074619
3.1054039 10.234304 33.994022
3.0732746 10.229325 33.944012
3.0412445 10.224337 33.893963
3.0915432 10.180613 33.745384
2.9257307 10.073381 33.265656
2.9062338 10.043561 33.116837
1.9203911 10.013331 32.120922
1.3266497 10.114379 31.906231
2.5893049 11.111707 36.662655
2.7282009 10.808071 35.745167
2.7778873 10.761786 35.586491
3.009326 10.397409 34.613728
3.1093626 10.281374 34.329662
3.0765743 10.276525 34.27969
3.0715504 10.171145 33.948845
3.0395203 10.166159 33.8988
3.0898905 10.122602 33.750126
3.0582819 10.117547 33.700081
3.0267639 10.112473 33.649986
1.4723577 10.029253 31.922129
3.0747509 10.218055 34.284603
3.0832396 10.19381 34.184418
3.0882425 10.064573 33.754879
3.0566349 10.059538 33.70483
3.0251961 10.054446 33.654675
2.9938459 10.049329 33.604469
2.9625883 10.044172 33.554214
2.9527454 10.01571 33.489006
2.9228649 9.9577503 33.274826
2.9033833 9.9281588 33.125996
1.8741722 9.9161015 32.176502
1.6999121 9.9638281 32.095219
1.6722012 9.9574518 32.042839
1.4715595 9.9705677 31.926388
2.8809347 10.497844 35.199394
2.8679409 10.469276 35.132759
2.9975204 10.303805 34.725174
3.0469608 10.259799 34.572502
3.0729237 10.159473 34.289528
3.081418 10.135358 34.189327
3.0902281 10.111181 34.089169
3.1002846 10.059556 34.008461
3.0866013 10.006563 33.759636
3.0550642 10.00151 33.709518
2.921402 9.8999453 33.279453
2.9019985 9.8704662 33.130547
1.4707632 9.9118814 31.930653
1.1774845 9.9635878 31.906975
2.9135962 10.598061 35.803135
2.8777657 10.593945 35.753159
2.9369984 10.341163 34.966515
3.0450478 10.201039 34.577507
3.0546207 10.149046 34.495647
3.1038818 10.105721 34.344425
3.071104 10.100944 34.294453
3.0384798 10.096118 34.244358
3.0849543 9.9485445 33.764385
3.0534248 9.9435005 33.714275
3.0219851 9.9384203 33.66412
2.9906368 9.9333105 33.613914
1.4972486 9.8597107 31.987696
1.4699678 9.8532162 31.934914
0.75086498 9.9841986 31.754175
2.8618603 10.427557 35.416622
2.8268986 10.423186 35.366405
2.9349833 10.281813 34.971619
3.102066 10.04718 34.349346
3.0693493 10.042395 34.299301
3.0778532 10.018498 34.199089
3.0833073 9.8905334 33.769138
3.0517788 9.8854923 33.719025
3.0203457 9.8804197 33.668873
2.9578247 9.8701582 33.568359
2.9681082 9.8462372 33.469364
2.9185438 9.7843437 33.288631
2.8991556 9.7551031 33.139709
1.8715305 9.7411423 32.189339
1.6971779 9.7883492 32.108158
1.6695518 9.7820044 32.055721
1.4964504 9.8010359 31.991957
1.4691734 9.7945499 31.939178
2.9177771 10.270853 35.18203
3.0675316 9.9838629 34.304226
3.0760336 9.9600754 34.203999
3.0849295 9.9362278 34.103741
3.0739861 9.9080935 34.03825
3.0816679 9.8325262 33.773891
3.0502081 9.8274832 33.723713
3.0187759 9.8224125 33.673561
2.9874344 9.8173046 33.623363
2.8977709 9.6974192 33.144257
1.4955826 9.7423687 31.996288
1.46838 9.7358837 31.943443
2.6066074 10.589204 36.183895
2.656498 10.543714 36.022625
2.7144947 10.445442 35.777561
2.8574896 10.307795 35.4272
3.0984154 9.9301186 34.359184
3.0657139 9.9253426 34.309147
3.0330954 9.9205275 34.25906
3.0800972 9.7745171 33.77858
3.0485687 9.7694845 33.72847
3.0171442 9.7644148 33.678326
2.95471 9.7541637 33.577751
1.6953411 9.6714087 32.116817
1.6677933 9.6650772 32.064312
1.640357 9.6587086 32.011784
1.4947863 9.683713 32.000549
1.4675903 9.6772375 31.947706
0.89763737 9.7802486 31.779867
2.6952648 10.643066 36.639397
2.8903446 10.252216 35.482655
3.0638943 9.8668127 34.314079
3.1136665 9.8244715 34.163528
3.0813808 9.8196173 34.113487
3.0469351 9.7114859 33.733234
3.0155754 9.7064171 33.68301
2.9635162 9.672575 33.483353
2.9343081 9.6155796 33.268875
2.9252195 9.5874176 33.203815
2.8950081 9.5820694 33.153358
1.8671856 9.5942917 32.183884
1.694458 9.6129408 32.121109
1.6669159 9.6066189 32.068611
1.6394844 9.6002693 32.016087
2.6383495 10.47141 36.245422
2.6018562 10.467282 36.194916
2.7456932 10.328844 35.838684
3.1118593 9.7661705 34.168434
3.0796442 9.7613068 34.118324
3.0474472 9.7564259 34.068241
3.0768166 9.6585302 33.788094
3.0452967 9.6534967 33.737988
3.0139427 9.648428 33.687771
1.6386147 9.5418291 32.02039
1.4931993 9.5664005 32.009071
1.466012 9.5599575 31.956238
2.6855497 10.365615 36.089558
3.1257496 9.7592955 34.42395
3.0929585 9.7545481 34.373962
3.1101122 9.7078705 34.173267
3.10672 9.6055355 33.842979
3.0751791 9.6005297 33.79285
3.0437346 9.595499 33.74268
3.0123806 9.5904312 33.692467
2.9604034 9.5568295 33.492718
1.8375635 9.4715824 32.140305
1.6926289 9.4960423 32.129772
1.6377449 9.4834013 32.024689
1.4652252 9.5013313 31.960503
0.69736576 9.6750336 31.808617
2.3555021 10.580183 36.769665
2.6831141 10.304902 36.095116
3.1083059 9.6495676 34.178173
3.0760994 9.6447153 34.128067
3.0420961 9.5375195 33.747433
3.0107489 9.5324526 33.697227
2.9588547 9.4989624 33.497406
2.9695663 9.4756804 33.398331
2.9299221 9.442441 33.282722
2.9210014 9.4144211 33.217533
2.8907986 9.4090929 33.167076
1.8643045 9.4195366 32.196877
1.8366098 9.4133501 32.144634
1.6369476 9.4249735 32.028919
1.2166204 9.5008821 31.875349
0.92163754 9.5497169 31.850597
2.6676455 10.292561 36.312546
3.1064968 9.5912781 34.183079
3.0742893 9.5864248 34.132977
3.0833702 9.5633011 34.032967
3.1350727 9.494523 33.902573
3.1034403 9.4895554 33.852489
3.071907 9.4845629 33.802372
3.0404654 9.4795418 33.752197
3.0091896 9.474474 33.701916
1.6360817 9.3665562 32.033226
1.2426472 9.4485626 31.932945
1.068717 9.466176 31.867384
2.3503113 10.456509 36.781174
2.7145557 10.187565 36.156574
3.1047602 9.5329866 34.187916
3.0702686 9.4265823 33.807125
3.0389042 9.4215527 33.756886
3.0075569 9.4164953 33.70668
2.9557581 9.3832474 33.506786
2.9664764 9.3601847 33.407692
1.8347063 9.296896 32.153309
1.0680151 9.4070845 31.871649
2.712182 10.126823 36.16206
3.1029587 9.4747057 34.192833
3.0707521 9.4698534 34.142727
3.0798435 9.446949 34.042698
2.9955902 9.3076363 33.462734
2.9649315 9.3024368 33.412376
2.9039803 9.291954 33.31147
2.8736858 9.286665 33.260918
2.8651171 9.2587442 33.195503
1.8614388 9.2448406 32.209877
1.8337555 9.2386837 32.15765
1.2411385 9.3307753 31.941463
1.2143354 9.3242292 31.88817
2.7460756 10.070202 36.217964
3.1011534 9.4164238 34.197735
3.0690231 9.4115639 34.147568
3.0781183 9.3887777 34.047531
3.1088076 9.3432684 33.93222
3.0984621 9.3156281 33.866833
3.0670042 9.3106356 33.81665
3.0356388 9.3056154 33.766415
3.0043716 9.300559 33.716141
1.8328781 9.1804647 32.161911
1.2403507 9.2718906 31.945759
1.2135592 9.2653637 31.892473
2.7436371 10.009488 36.22353
2.7073078 10.005377 36.173187
3.0718546 9.4540854 34.485332
3.1316423 9.3629589 34.252697
3.0994205 9.3581352 34.202579
3.0672903 9.3532839 34.152412
3.0653744 9.2526665 33.821407
3.034008 9.2476463 33.771175
3.043891 9.2250576 33.671898
2.9925032 9.1921492 33.472092
2.9619226 9.1869621 33.421669
2.9314337 9.1817455 33.371201
2.9010487 9.1764946 33.320698
2.8707628 9.1712112 33.270157
1.8594618 9.1284161 32.21862
1.8319302 9.122263 32.166252
1.7771311 9.1098862 32.061508
1.2395658 9.2130165 31.950054
1.2128439 9.206502 31.8967
2.7412014 9.9487638 36.229092
2.7049408 9.944644 36.17868
3.1622162 9.3094645 34.307606
3.1298351 9.3046761 34.257603
3.0976152 9.2998629 34.207481
3.0654926 9.2950125 34.157322
3.0745983 9.2724476 34.057266
3.0834131 9.1497755 33.627636
2.9909611 9.1344223 33.476768
2.9603796 9.1292334 33.42635
2.9298973 9.1240177 33.375885
2.8995142 9.1187744 33.325382
2.8693047 9.1134949 33.274776
2.8391876 9.1081781 33.224121
1.8585119 9.0702133 32.22295
1.7761955 9.0517139 32.065857
1.3850489 9.1310015 31.966206
1.2120676 9.1476479 31.901001
2.7387638 9.8880405 36.234657
3.0958138 9.2415924 34.212399
3.0637608 9.2367334 34.162167
3.0728722 9.2142763 34.062103
3.0823078 9.1917791 33.962086
3.0721655 9.1642723 33.896458
3.0621128 9.1367474 33.830929
3.0308247 9.1317205 33.780632
3.0407104 9.1093493 33.681332
2.9894171 9.076683 33.481449
2.9588442 9.0715046 33.431034
1.8575611 9.0120115 32.227287
1.7753296 8.993536 32.070129
1.237998 9.0952969 31.958651
1.2112894 9.0888023 31.905304
0.788517 9.161602 31.747532
2.7363253 9.8273163 36.240223
3.0661669 9.2783394 34.500317
3.1585312 9.1929188 34.317486
3.1262274 9.1881342 34.267422
3.0940838 9.1833115 34.217239
3.0619612 9.1784611 34.16708
3.0292025 9.0737715 33.785397
3.0390902 9.0515108 33.686092
3.0493126 9.0292196 33.586834
2.987874 9.0189657 33.486126
2.9573011 9.0137873 33.435711
2.9268961 9.0085726 33.385185
2.8965921 9.0033321 33.334618
2.8663826 8.9980631 33.284012
2.8362722 8.9927654 33.233364
1.8566141 8.9538202 32.231625
1.774395 8.9353828 32.074474
1.237215 9.0364418 31.962944
2.7831516 9.7243538 36.084774
3.1244259 9.1298628 34.272339
3.0922832 9.1250401 34.222153
3.0602322 9.1201916 34.171921
3.0694237 9.0979548 34.07177
2.9863386 8.9612379 33.49081
2.9557667 8.956069 33.440395
2.9253616 8.9508648 33.38987
2.8950634 8.9456339 33.33931
2.8648548 8.9403658 33.288704
2.8763771 8.9180536 33.189899
0.78727055 9.0429745 31.755987
3.108778 9.0225639 34.026783
3.0771494 9.0176487 33.976555
3.0456085 9.012701 33.926281
3.035923 8.935833 33.695538
3.0461483 8.9137716 33.59626
2.9847946 8.9035187 33.495491
2.9543009 8.8983526 33.445011
2.9239044 8.8931494 33.394489
2.8935986 8.8879271 33.343922
1.8547182 8.8374462 32.240299
1.7726011 8.8190699 32.083096
0.96054077 8.9678631 31.827223
3.101614 9.0852289 34.464569
3.1531219 9.018115 34.332222
3.12082 9.01334 34.282154
3.0886841 9.0085278 34.231976
3.1070576 8.9645157 34.031609
3.0342999 8.8780136 33.700287
3.0445347 8.8560505 33.601006
2.9832602 8.8458099 33.500172
2.9527655 8.8406467 33.449696
2.92237 8.8354502 33.399174
2.8920727 8.8302288 33.34861
2.8619432 8.8249626 33.297939
2.8734741 8.8028784 33.19912
1.77174 8.760932 32.087376
1.1818275 8.8470001 31.868942
0.98608017 8.9153643 31.885349
0.95976067 8.9087687 31.831551
2.8118782 9.5470428 36.151707
3.1190186 8.9550781 34.287067
3.0868855 8.9502659 34.236885
3.1052694 8.9064817 34.036503
3.0736465 8.9015751 33.986282
3.0737715 8.8034077 33.656036
3.0429916 8.7983351 33.605686
2.9817181 8.7881012 33.504852
2.9729328 8.7607422 33.439293
2.9426422 8.7555418 33.388737
2.8906145 8.7725248 33.353233
2.8822927 8.7450752 33.287582
2.8523035 8.7397928 33.236912
2.844285 8.7122831 33.17128
2.5365314 8.70749 32.741947
1.7708111 8.7027998 32.091721
1.525466 8.7573395 32.003654
1.1810598 8.7882051 31.873249
0.78526592 8.8651152 31.768808
3.0566206 8.985487 34.525368
3.1035547 8.8484516 34.041336
3.0934811 8.8212633 33.975601
3.0620575 8.8163204 33.925297
3.0722284 8.7456789 33.660713
2.7693348 8.693655 33.154884
2.7396812 8.6882915 33.103992
2.6806812 8.6774597 33.002098
2.6513338 8.6720009 32.951096
2.6221571 8.6665087 32.89999
2.5930862 8.6609888 32.848846
2.5641184 8.6554413 32.797665
2.5352545 8.649868 32.746452
2.4494286 8.632947 32.592468
2.2782669 8.6490688 32.532555
2.2500486 8.64328 32.480881
2.2220097 8.6374559 32.4291
2.1662531 8.6257267 32.325455
1.9955044 8.6413698 32.263599
1.9680233 8.6353607 32.211407
1.326107 8.7078447 31.889898
0.95835781 8.7906055 31.840075
3.0959425 8.9098606 34.47953
3.1262112 8.8657045 34.362782
3.115427 8.8385754 34.296898
3.1448851 8.7459478 34.015064
2.76789 8.6359901 33.159512
2.7382431 8.6306353 33.108624
2.6793175 8.6198149 33.006664
2.6500435 8.6143599 32.955593
2.620801 8.6088753 32.90456
2.5918045 8.6033573 32.853348
2.5628395 8.5978203 32.802174
2.5339775 8.5922461 32.750961
2.5052919 8.5866451 32.699642
2.4482346 8.5753555 32.596912
2.2770805 8.5912886 32.537033
2.2489367 8.5855017 32.485287
2.2209034 8.5796881 32.433514
2.1651573 8.5679789 32.329868
2.0220699 8.5893879 32.320137
1.9944849 8.583415 32.267975
1.9670115 8.577426 32.21579
0.95758533 8.7315331 31.84441
2.8045988 9.3655891 36.168346
3.1372414 8.8066359 34.45261
3.1458483 8.7850981 34.351929
2.796196 8.5836611 33.214989
2.766448 8.5783339 33.164143
2.7368727 8.5729704 33.113186
2.6779547 8.5621719 33.011234
2.6486845 8.556716 32.960163
2.5904522 8.5457335 32.857922
2.5615625 8.5401974 32.806675
2.5327034 8.5346336 32.75547
2.5040226 8.5290442 32.704155
2.4469719 8.5177736 32.601429
2.2759676 8.5334911 32.541439
2.2478285 8.5277252 32.489697
2.2197971 8.5219193 32.437923
2.1641293 8.5102224 32.334217
1.9934683 8.5254803 32.272354
2.2186918 8.4641514 32.442337
2.1630344 8.4524851 32.338634
1.9924536 8.4675465 32.276733
1.9650583 8.4615679 32.224483
3.0714588 8.805294 34.677853
2.7933044 8.468339 33.224247
2.7636375 8.4630232 33.173328
2.734067 8.4576693 33.122379
2.6752338 8.4468927 33.020363
2.6459694 8.4414577 32.969299
2.5878229 8.4305058 32.866997
2.558938 8.4249811 32.815762
2.530159 8.4194288 32.764484
2.5015545 8.4138412 32.713104
2.4445906 8.4026012 32.610321
2.2736712 8.417944 32.550323
2.2175884 8.406395 32.446747
2.1619396 8.3947496 32.343052
1.9914379 8.4096117 32.281116
1.9640484 8.4036522 32.228867
2.8331966 9.1882944 36.235432
3.0526867 8.7896347 34.886688
3.0412283 8.7625933 34.820118
3.1124458 8.7020817 34.650902
2.7621965 8.4053764 33.177959
2.7326298 8.4000349 33.12701
2.6738749 8.3892593 33.024933
2.6446142 8.3838329 32.973869
2.5865431 8.3728933 32.871502
2.5576639 8.3673792 32.820263
2.5288868 8.3618364 32.768997
2.5002851 8.3562584 32.717617
2.4433298 8.3450289 32.614838
2.2724905 8.3601837 32.554798
2.216486 8.3486481 32.45116
2.1609144 8.3370132 32.347401
0.58245945 8.5766211 31.810358
3.0129013 8.796093 35.113014
3.1514769 8.6270227 34.604984
2.7607546 8.3477306 33.18259
2.7312641 8.3423901 33.131573
2.6724443 8.3316422 33.029568
2.643259 8.3262186 32.978439
2.5851946 8.3152885 32.87608
2.4990196 8.2986755 32.72213
2.4421415 8.2874584 32.619286
2.2713814 8.3024168 32.559204
2.2153149 8.2909174 32.455643
2.1598215 8.2792845 32.351818
1.989481 8.2937632 32.289806
1.9620991 8.2878246 32.237564
0.58183765 8.5170832 31.814613
2.9732609 8.8023872 35.341072
3.0325279 8.7144976 35.101711
3.0818672 8.6764908 34.947227
2.759388 8.2900867 33.187153
2.7298317 8.2847633 33.136204
2.6419029 8.2686033 32.983013
2.5839195 8.2576876 32.880581
2.5550451 8.2521915 32.82935
2.4977541 8.2411051 32.726643
2.4409523 8.2298985 32.62373
2.2702017 8.244668 32.563683
2.2142134 8.2331705 32.460056
2.1587286 8.2215672 32.356239
1.9884701 8.2358589 32.294182
2.8257828 9.0068769 36.25222
2.874876 8.9675703 36.091393
3.0052128 8.7474213 35.396687
2.9711084 8.7429819 35.346336
3.0798168 8.6176271 34.952381
3.0465221 8.6130619 34.902157
3.1476269 8.5101471 34.615028
2.7579498 8.2324495 33.19178
2.7283945 8.2271366 33.140839
2.6405487 8.2110004 32.987579
2.582572 8.2000933 32.885155
2.553772 8.1946011 32.833855
2.4964886 8.1835318 32.731155
2.4396963 8.1723461 32.62825
2.4114933 8.1667089 32.576714
2.2690229 8.1869183 32.568161
2.2131138 8.1754436 32.46447
2.9302082 8.8186245 35.852165
2.8951397 8.8143377 35.801826
3.0029917 8.688036 35.402016
3.061965 8.6008549 35.162418
3.0283346 8.5963488 35.112125
3.1374035 8.472538 34.721333
3.1456709 8.4517136 34.620087
2.7565117 8.1748238 33.196415
2.7270308 8.1695042 33.145405
2.6391964 8.1533966 32.992149
2.581296 8.1424999 32.88966
2.5525007 8.1370173 32.838364
2.495224 8.1259594 32.735668
2.466814 8.1203861 32.684196
2.4385109 8.1147966 32.632698
2.4103117 8.109169 32.581161
2.2679148 8.1291695 32.572567
2.2120152 8.1177149 32.46888
2.1841908 8.1119566 32.41703
2.1565475 8.1061525 32.365078
1.9864483 8.120059 32.302948
1.9127464 8.1580439 32.279579
0.57983303 8.3385286 31.827517
2.8208046 8.8859358 36.263462
2.9278135 8.7586985 35.857674
2.9861841 8.6708899 35.614559
2.9515982 8.6665287 35.564293
3.0262718 8.5372677 35.117306
3.075633 8.4999266 34.962761
2.7550774 8.117198 33.201042
2.7674255 8.0963907 33.102036
2.6378441 8.0957909 32.996719
2.5799503 8.0849171 32.894238
2.5511589 8.0794439 32.842941
2.4939613 8.068408 32.740181
2.4655552 8.0628443 32.688713
2.4372559 8.0572538 32.637215
2.4090614 8.0516357 32.585682
2.2667389 8.0714312 32.577045
2.2108469 8.0599957 32.473366
2.1830978 8.0542393 32.421448
2.15553 8.0484467 32.369427
2.1279984 8.042635 32.317448
2.818306 8.8254709 36.269077
2.9119291 8.7411861 36.072887
2.9605732 8.7030296 35.913464
2.9986076 8.5692568 35.412605
3.1068783 8.4456186 35.018154
3.0735741 8.4410725 34.967907
3.1334114 8.3554688 34.731541
3.1417522 8.3348541 34.630199
2.7536402 8.0595827 33.205677
2.7660666 8.0388861 33.10659
2.6364918 8.0381975 33.001293
2.5786762 8.0273352 32.898743
2.5498896 8.0218706 32.84745
2.4926987 8.0108452 32.744694
2.4642954 8.0052929 32.69323
2.4360704 7.9997025 32.641663
2.4078808 7.9941053 32.590134
2.9582481 8.6431046 35.918903
2.9230928 8.6388464 35.868622
2.9963837 8.5098705 35.417938
3.0457392 8.4725704 35.261684
3.0556316 8.4236412 35.17807
3.1048203 8.3867645 35.023304
3.1314449 8.2969341 34.736599
3.1397972 8.2764311 34.635262
2.7522058 8.0019665 33.210308
2.764637 7.9813805 33.111214
2.6772871 7.9653263 32.958012
2.5773335 7.9697599 32.903316
2.5486212 7.9642982 32.851955
2.491436 7.9532928 32.749207
2.46311 7.9477415 32.697678
2.4348173 7.9421806 32.646179
2.4067001 7.9365749 32.594585
2.3507214 7.9253006 32.491367
2.1809139 7.9388447 32.430279
2.1533527 7.9330721 32.378265
2.1259012 7.9272718 32.326221
1.9600868 7.9682245 32.330723
1.9983988 7.9530382 32.19838
2.8133278 8.7045298 36.280323
2.9558544 8.583189 35.924416
2.9207706 8.5789213 35.874058
2.9698601 8.5413208 35.715446
2.979413 8.4920654 35.63068
3.0283508 8.4548969 35.473572
3.1027012 8.3279181 35.02853
3.0693989 8.3233833 34.978294
2.7507725 7.9443598 33.214939
2.7632074 7.9238825 33.115837
2.7180157 7.8926811 32.91478
2.5472803 7.906745 32.856537
2.4901762 7.895751 32.753723
2.461853 7.8902082 32.70219
2.4335632 7.8846493 32.6507
2.4054518 7.8790636 32.599106
2.3496218 7.8677912 32.49575
2.1798229 7.8811464 32.434696
2.8956547 8.610301 36.175259
2.9047203 8.5607491 36.089478
2.9534588 8.5232716 35.929924
2.9183798 8.5190048 35.879578
3.0261297 8.3955107 35.478897
2.9919376 8.3911009 35.428604
3.1005764 8.2690725 35.033756
3.0673475 8.2645292 34.983448
3.1169014 8.2282028 34.829544
3.1274548 8.1798763 34.746803
3.1769018 8.1439552 34.594311
2.7617826 7.866396 33.120457
2.71667 7.8353157 32.919327
2.5459442 7.8491917 32.861115
2.4889164 7.8382082 32.758236
2.4605961 7.8326769 32.706707
2.4323826 7.8271284 32.655148
2.9510651 8.4633551 35.935432
2.9159851 8.4590788 35.885086
3.0238256 8.3361349 35.484299
2.9897137 8.3317261 35.433937
3.0390854 8.2951021 35.277615
3.0492344 8.2464466 35.193806
3.0985165 8.210228 35.038906
3.1255007 8.1213436 34.751881
3.1749496 8.08564 34.599361
2.7479076 7.8291492 33.224201
2.7603531 7.8089094 33.125084
2.7731342 7.7886419 33.026012
2.7152576 7.7779589 32.923946
2.5446758 7.7916288 32.865623
2.4876575 7.7806759 32.762749
2.459342 7.7751541 32.711224
2.4311304 7.7696066 32.659668
2.4030266 7.7640409 32.608078
2.3472834 7.7528114 32.504665
2.1775723 7.765789 32.4436
2.150095 7.7600393 32.391525
2.0997562 7.7757998 32.353886
1.9951391 7.7798672 32.211658
2.9486694 8.4034386 35.940941
2.9555931 8.3828554 35.83633
2.9628391 8.3622313 35.731773
3.0142307 8.2972069 35.593372
3.0216045 8.2767601 35.489628
3.1297054 8.1559076 35.094387
3.0963955 8.151392 35.044132
3.1044731 8.1311941 34.941914
2.7464743 7.7715521 33.228836
2.7589264 7.7514334 33.129707
2.7717133 7.7312737 33.030632
2.713913 7.720603 32.928501
2.5857353 7.719244 32.822548
2.4863968 7.7231436 32.767262
2.458086 7.7176313 32.71574
2.4298782 7.7121048 32.664188
2.4018497 7.7065306 32.61253
2.3460445 7.6953297 32.509193
2.9394455 8.3640423 36.051445
2.9462719 8.3435221 35.946449
3.053587 8.2217655 35.545269
3.0193825 8.2173748 35.494961
2.9852676 8.212965 35.444599
3.0942726 8.0925579 35.049358
3.1023569 8.0724678 34.947128
3.132472 8.0306253 34.828671
3.1215086 8.004303 34.762089
3.1709728 7.9690399 34.609524
2.7125702 7.6632586 32.933048
1.993041 7.6644335 32.22044
2.9790392 8.2878447 36.002247
2.9438829 8.2836065 35.951969
2.9508886 8.2632341 35.847271
3.017087 8.1580076 35.500362
3.0246372 8.1378365 35.3969
3.0325069 8.1176252 35.293484
3.0841522 8.0537558 35.157188
3.0921516 8.033721 35.054585
3.0589943 8.0291796 35.004208
3.1690226 7.9107351 34.614578
2.7435417 7.6563787 33.238171
2.7560759 7.6364803 33.138954
2.7688732 7.6165609 33.03986
2.7111578 7.6059227 32.937672
2.5831366 7.6043863 32.831615
2.483882 7.608099 32.776291
2.4555779 7.6026077 32.724773
2.4274502 7.5970907 32.673153
2.3994293 7.5915365 32.621502
2.3437099 7.5803776 32.518108
2.1513052 7.6141653 32.471451
2.1007729 7.6298418 32.433907
2.0733509 7.6241121 32.381741
1.9919586 7.6067266 32.224865
2.9414883 8.2236881 35.957474
2.9484997 8.2034359 35.852768
3.0001984 8.1388321 35.713493
3.0074034 8.1187487 35.609539
3.014863 8.0986328 35.505695
3.1233339 7.9793911 35.110058
3.0900211 7.9748859 35.059803
3.0981922 7.9550171 34.957497
2.7421112 7.598793 33.242805
2.7964973 7.5644732 33.095486
2.7675257 7.5591955 33.044407
2.709815 7.5485773 32.942219
2.5818052 7.5469608 32.836185
2.4825563 7.5505953 32.780872
2.4543247 7.545105 32.72929
2.4262028 7.5395985 32.677673
2.3981857 7.5340548 32.626026
2.8316317 8.2854433 36.370262
2.8806849 8.2488899 36.208935
2.9321804 8.1839724 36.068077
2.9391003 8.1637735 35.96299
3.0467672 8.0436459 35.561401
3.0125694 8.0392647 35.511101
3.0201979 8.0193052 35.407547
3.0879002 7.9160595 35.065033
3.0960655 7.8962908 34.962708
3.1044884 7.8765097 34.860497
3.1154966 7.8287497 34.777439
3.1650515 7.7941446 34.624744
2.0710878 7.5086555 32.390648
1.9897957 7.4913406 32.233719
0.4955883 7.7226009 31.849848
2.9717188 8.1081219 36.018925
2.9367065 8.103857 35.968498
2.943718 8.0838318 35.86377
3.0102768 7.9798994 35.516499
3.01791 7.9600582 35.412941
3.0258675 7.940176 35.309425
3.0777006 7.8769274 35.172962
3.0857801 7.8572235 35.070259
3.1631012 7.7358494 34.629795
2.7391815 7.4836493 33.25214
2.7936573 7.449769 33.10471
2.7646885 7.4445028 33.053642
2.7070637 7.4339142 32.951393
2.5791407 7.4321423 32.845322
2.4518204 7.4301109 32.738323
2.4237051 7.4246235 32.686714
2.3957672 7.4191027 32.635002
2.3679361 7.4135532 32.583252
2.3402138 7.4079866 32.531479
2.2898912 7.423501 32.494167
2.124712 7.462326 32.499561
2.0699234 7.4509363 32.395134
2.0156488 7.4394417 32.290527
1.9887133 7.4336643 32.238144
0.49482632 7.6631107 31.854244
2.934248 8.0439596 35.974083
2.9833517 8.0083952 35.814949
2.9486732 8.0040798 35.764584
3.000515 7.9403095 35.625778
3.0080605 7.9205236 35.521839
2.9740162 7.9161062 35.471413
3.1168909 7.8029022 35.125801
3.0836563 7.798399 35.075485
3.0918341 7.7788582 34.973141
2.7921658 7.3924303 33.109394
2.7632723 7.3871651 33.058258
2.7056541 7.3765974 32.956017
2.6202192 7.3605328 32.802174
2.450572 7.3726187 32.74284
2.3945236 7.3616295 32.639523
1.9876328 7.3759775 32.242573
2.9086618 8.0723763 36.276295
2.9668655 7.9882984 36.030018
