ply
format ascii 1.0
comment PCL generated
element vertex 1542
property float x
property float y
property float z
element camera 0
property float view_px
property float view_py
property float view_pz
property float x_axisx
property float x_axisy
property float x_axisz
property float y_axisx
property float y_axisy
property float y_axisz
property float z_axisx
property float z_axisy
property float z_axisz
property float focal
property float scalex
property float scaley
property float centerx
property float centery
property int viewportx
property int viewporty
property float k1
property float k2
end_header
2.2445223 4.6760511 32.673885
2.1846056 4.6748204 32.664135
1.9597747 4.6386242 32.306076
1.9005373 4.6373997 32.295776
1.8177726 4.6351919 32.153236
1.75881 4.633965 32.142601
1.6998899 4.6327467 32.13187
0.31409654 4.5425987 31.340288
0.25697145 4.541389 31.326399
0.08590278 4.5377421 31.284298
-0.027902722 4.5353222 31.255577
-0.088152528 4.5489235 31.27018
-0.14497486 4.5477133 31.25556
-0.20175192 4.5464945 31.240732
-0.25847533 4.5452895 31.225809
-0.3187578 4.5588832 31.240007
-0.37542787 4.5576658 31.224775
-0.58783764 4.5534439 31.292658
-0.6444521 4.5522256 31.276915
-0.70101404 4.5510163 31.260975
-0.75750923 4.5497894 31.245029
-0.8576684 4.5479684 31.342955
2.1852791 4.6157565 32.661316
2.1005487 4.613616 32.517231
1.8184428 4.5769463 32.150261
1.7594907 4.5757303 32.139633
1.6891079 4.5741453 32.063164
1.6189759 4.5725675 31.98658
-0.70022047 4.4939804 31.256954
-0.75670868 4.4927721 31.241005
-0.85685074 4.4907699 31.338919
2.101223 4.55478 32.514423
2.0415924 4.5535755 32.504353
1.961133 4.5216565 32.300205
1.9018872 4.5204492 32.289799
1.819124 4.5186996 32.147282
0.25844941 4.4273391 31.319176
0.087396175 4.4238033 31.276878
-0.083209619 4.4202633 31.233543
-0.19669554 4.4179182 31.204004
-0.25335795 4.4167438 31.189074
-0.4870418 4.4414525 31.186382
-0.58626747 4.4393044 31.284714
-0.64286828 4.4381142 31.268974
-0.6994186 4.4369369 31.253035
-0.75590825 4.4357648 31.236986
-0.85603964 4.4335876 31.334791
2.329473 4.5308366 32.872295
2.1866398 4.4976125 32.655689
1.902575 4.4619765 32.286911
1.8197951 4.4604516 32.144321
1.7608426 4.4592581 32.133682
1.6904521 4.4579177 32.057129
0.59685636 4.4066443 31.455458
0.42467692 4.4031444 31.415262
0.088142276 4.3668394 31.273163
-0.082454652 4.3633537 31.229736
-0.25258642 4.3598752 31.185265
-0.30919668 4.3587227 31.170134
-0.36575204 4.3575764 31.154894
-0.6420821 4.3810673 31.264956
-0.96823359 4.3740859 31.297764
-2.1862862 4.4691525 32.088947
2.1873205 4.43853 32.652962
2.102566 4.4371023 32.508713
1.9624889 4.4046822 32.294434
1.8222802 4.3874073 32.111252
1.7633798 4.3862267 32.100513
1.6930392 4.3849959 32.023968
1.6249275 4.3690677 31.918003
1.562372 4.3974113 31.966343
1.3650444 4.3938355 31.801426
1.3089957 4.3779573 31.760523
1.2508049 4.3767958 31.748732
1.0561368 4.3733191 31.582806
0.9983263 4.3721652 31.570486
0.94306159 4.3563452 31.529219
0.88537753 4.3551917 31.516682
0.82772827 4.3540392 31.503942
0.77012837 4.3528781 31.491194
-1.0888867 4.3441296 31.319389
2.2478995 4.3806391 32.660004
1.3700533 4.3068013 31.739672
1.311891 4.3056531 31.727974
1.2537599 4.304502 31.716173
1.0592334 4.3013325 31.550661
1.0014725 4.3001881 31.538332
0.94375324 4.2990413 31.525896
0.88607359 4.2978973 31.513357
0.82842886 4.2967553 31.500618
0.77082539 4.2956204 31.487772
0.6557498 4.2933431 31.461769
-1.2459044 4.2831602 31.395781
-1.3023118 4.2820497 31.378426
-1.4091421 4.2941999 31.505873
-1.4608915 4.2782593 31.458103
1.3125776 4.2480488 31.724834
1.2544463 4.2469049 31.713036
1.0599225 4.2439914 31.547432
1.002172 4.2428689 31.535105
0.94444489 4.241735 31.52257
0.88676989 4.240612 31.510033
0.82912862 4.2394791 31.49729
0.77153015 4.2383537 31.484453
0.58980155 4.2352591 31.380829
0.40914109 4.2321873 31.276022
0.35206756 4.231081 31.262232
-1.2450637 4.2258148 31.391537
-1.3014706 4.2247248 31.374186
-1.629173 4.2464209 31.593941
-1.732901 4.2436275 31.691996
1.5664282 4.2088847 31.927471
1.3714347 4.1915646 31.73349
1.3132644 4.1904402 31.721697
1.2551432 4.1893182 31.709894
1.0606122 4.1866617 31.544207
-1.0864202 4.1725507 31.307095
-1.2442149 4.1684737 31.387398
-1.3006219 4.1674018 31.370045
-1.7320087 4.185709 31.687618
-2.0087211 4.2084947 31.928072
1.4303164 4.1350718 31.741941
1.3721211 4.1339464 31.730349
1.3139508 4.1328444 31.718557
1.2558295 4.1317229 31.706753
1.0613118 4.1293306 31.540985
1.0035529 4.1282291 31.528557
0.94583654 4.1271267 31.516024
0.88816154 4.1260309 31.503389
0.83052945 4.1249371 31.490646
0.77293861 4.1238422 31.477804
-1.2433757 4.1111326 31.383255
-1.2997712 4.1100869 31.365801
-1.4678309 4.1351323 31.505476
-1.5242947 4.1340842 31.487528
-1.6274209 4.1309443 31.58531
-2.0077987 4.1501412 31.923565
1.2459989 4.0746999 31.638968
1.0620012 4.0719986 31.53776
1.0042425 4.07091 31.525333
0.94653583 4.069828 31.512798
0.88886416 4.0687385 31.500162
0.8312279 4.0676613 31.487324
0.77364242 4.0665755 31.474478
0.59192371 4.0639477 31.370586
0.41428331 4.04706 31.236647
0.3572748 4.0460043 31.222857
-1.0847741 4.0581832 31.298929
-1.242527 4.0538015 31.379116
-1.2989221 4.0527759 31.361662
-1.6265311 4.0732217 31.581043
-1.7302082 4.0698857 31.678961
1.568475 4.0350995 31.918501
1.4899113 4.0209074 31.747349
1.4316945 4.0198073 31.735859
1.3734918 4.0187197 31.724171
1.3153319 4.0176358 31.712378
1.2466962 4.0172238 31.635839
1.062691 4.0146785 31.534534
1.0049422 4.0135989 31.522108
0.94723547 4.0125251 31.509577
-1.0839481 4.0010047 31.294901
-1.1403046 4.0000038 31.27775
-1.2416785 3.9964712 31.374975
-1.522567 4.0189772 31.479113
-1.625651 4.0154948 31.57678
-2.0059552 4.0334415 31.914656
1.4323792 3.9621851 31.732819
1.3741868 3.9611073 31.72113
1.3160183 3.9600401 31.709234
1.2473826 3.9597464 31.632706
1.0633879 3.9573417 31.531412
1.0056314 3.9562879 31.518887
0.94793499 3.9552236 31.506351
0.89026165 3.9541721 31.49362
0.83263314 3.9531257 31.480778
0.76550639 3.952883 31.403431
0.59334433 3.9497509 31.363857
0.41271302 3.9474695 31.25869
-1.1394681 3.942847 31.27372
-1.2408398 3.9391384 31.370831
-1.2972152 3.9381633 31.35338
-1.4652545 3.9624147 31.492912
-1.5216963 3.9614429 31.474859
-1.6247791 3.9577761 31.572412
-2.0050325 3.9750977 31.910151
1.2480699 3.9022708 31.629576
1.1796887 3.9021084 31.55283
1.0640776 3.9000189 31.528187
1.0063385 3.8989697 31.515757
0.94863439 3.8979323 31.50313
0.76621485 3.8957324 31.400213
0.58485341 3.893575 31.296114
0.52766931 3.8925512 31.282644
0.41343114 3.8905287 31.255283
0.35637888 3.8895192 31.241394
-1.0258971 3.8876252 31.303791
-1.0822959 3.8866613 31.286842
-1.1386405 3.8856997 31.269691
-1.2399912 3.8818278 31.366692
-1.2963661 3.8808632 31.349243
-1.6238996 3.9000611 31.568146
-1.7275158 3.8962023 31.665932
1.5572944 3.876543 31.874039
1.491973 3.847986 31.738329
1.433748 3.8469324 31.726738
1.3755577 3.8458903 31.714951
1.3173989 3.8448434 31.703056
1.2487564 3.8447938 31.626442
1.1803759 3.8447523 31.549702
1.1225555 3.8437271 31.537382
1.064775 3.8426833 31.525064
1.007028 3.8416591 31.512533
0.94932389 3.8406317 31.499905
-1.0250713 3.8304327 31.299862
-1.0814713 3.8294947 31.282812
-1.137804 3.8285639 31.265659
-1.4635364 3.8472991 31.484499
-1.5199779 3.8463767 31.466454
-2.0113344 3.8605781 31.764273
1.3762518 3.7882781 31.71191
1.3180943 3.7872403 31.700022
1.2494519 3.7873127 31.623413
1.1810632 3.7873957 31.546579
1.123242 3.7863817 31.53426
1.065464 3.7853618 31.521839
1.0077276 3.784349 31.50931
0.95002365 3.7833414 31.496681
0.76761472 3.7814512 31.393581
0.58626842 3.7796075 31.2894
0.5290854 3.7786212 31.275826
0.41486654 3.7766585 31.248472
0.35782453 3.7756772 31.234587
-1.0242535 3.7732563 31.29583
-1.0806458 3.7723386 31.278784
-1.1369843 3.7714312 31.261534
-1.2383051 3.7672009 31.358517
-1.2946686 3.7662911 31.340965
-1.4626781 3.7897491 31.480345
-1.5191097 3.7888472 31.462299
1.1817502 3.7300496 31.543451
1.1239398 3.7290444 31.531134
1.0661615 3.728045 31.518715
1.0084251 3.727042 31.506187
0.95072341 3.7260501 31.493458
0.75877297 3.7255478 31.325987
0.7014662 3.7245684 31.312822
0.58697987 3.7226226 31.286089
0.52980101 3.7216549 31.27252
0.4155831 3.7197278 31.245066
0.3585386 3.7187624 31.231085
-1.0234357 3.716079 31.291798
-1.0798222 3.7151906 31.274755
-1.1361473 3.7143054 31.257502
-1.5182494 3.7313316 31.458046
1.5614002 3.6888309 31.835306
1.4919187 3.6891248 31.758879
1.4358186 3.674062 31.717718
1.3776206 3.6730542 31.705833
1.3194824 3.6720474 31.693943
1.2508333 3.6723645 31.617249
1.1824379 3.6727021 31.540329
1.1246271 3.6717081 31.528009
1.0668585 3.6707187 31.515583
1.0091143 3.6697311 31.502964
0.95142007 3.6687527 31.490332
-1.0226107 3.6589069 31.28787
-1.0789981 3.6580343 31.270725
-1.1353203 3.6571774 31.253477
-1.4609616 3.6746674 31.472036
-1.5173813 3.6738105 31.453894
-2.0085707 3.6863227 31.751102
1.2409853 3.6163208 31.549515
1.1831325 3.6153402 31.5373
1.1253244 3.6143711 31.524885
1.0675561 3.6133928 31.512463
1.0098119 3.6124244 31.499842
0.95211995 3.6114616 31.487112
0.76017392 3.6114912 31.319464
0.7028693 3.6105464 31.306206
0.58839321 3.6086659 31.279377
0.53122318 3.6077275 31.265804
0.47410032 3.6067965 31.252134
0.41701671 3.605866 31.238256
0.35998115 3.6049411 31.224274
-1.0217872 3.6017342 31.283937
-1.0781659 3.6008918 31.266794
-1.134485 3.6000457 31.249552
-1.2357635 3.5952971 31.346298
-1.4601035 3.6171265 31.467882
-1.5165128 3.6163003 31.449741
1.1838199 3.5579934 31.53418
1.126019 3.557029 31.521854
1.0682433 3.5560749 31.50934
1.0105095 3.5551181 31.496717
0.94293368 3.555712 31.419651
0.76087964 3.5544581 31.316259
0.7035774 3.5535245 31.303001
0.58910239 3.5516891 31.27607
0.53193653 3.5507617 31.262499
0.47481057 3.5498564 31.248722
0.41773233 3.5489457 31.234846
0.36070105 3.5480313 31.220867
-1.02097 3.5445771 31.279909
-1.0773431 3.5437546 31.262772
-1.1336488 3.5429285 31.24552
-1.4592377 3.5595908 31.463829
-1.5156444 3.5587893 31.445587
1.5613598 3.5293207 31.856527
1.4939651 3.5160532 31.75005
1.4356954 3.51508 31.738268
1.242365 3.5015862 31.543465
1.1845151 3.5006418 31.531155
1.1267068 3.4996924 31.518734
1.0689404 3.4987586 31.50621
1.0112066 3.4978108 31.493591
0.94362354 3.4985418 31.416433
0.76158285 3.4974279 31.313051
0.70428562 3.4965134 31.299791
0.58981895 3.4947076 31.272865
-1.0201471 3.4874148 31.27598
-1.3560846 3.507122 31.362463
-1.4583793 3.50207 31.459679
-1.5147867 3.5012891 31.441433
-2.0165796 3.5406191 31.799622
1.2430602 3.4442236 31.540442
1.1852099 3.4432898 31.528124
1.1274116 3.4423606 31.515709
1.0696377 3.4414315 31.50309
1.0119139 3.4405143 31.490469
0.94432139 3.4413543 31.413319
0.76228547 3.4404058 31.309837
0.7049861 3.4395175 31.296482
0.6477381 3.4386189 31.283121
0.59052801 3.4377315 31.269554
0.53336358 3.4368494 31.255886
0.47624704 3.4359634 31.242109
0.41916957 3.4350889 31.228138
0.36214814 3.4342244 31.214155
-1.0193242 3.4302526 31.272055
-1.1319861 3.4287093 31.237564
-1.3552387 3.4497755 31.358423
-1.5139179 3.4437985 31.437283
1.5739127 3.4117608 31.916147
1.128099 3.3850238 31.512589
1.0703324 3.3841109 31.500067
1.0126109 3.3832076 31.487343
0.94501901 3.3841767 31.410204
0.8777051 3.3851533 31.332933
0.76298892 3.383384 31.306629
0.70569193 3.3825059 31.293274
0.64844143 3.3816323 31.279816
0.59123528 3.3807559 31.266247
0.53407729 3.3798933 31.252583
0.47696444 3.3790274 31.238811
0.41989121 3.3781734 31.224831
-1.0185012 3.3731 31.268126
-1.6824839 3.4081757 31.572336
1.5634075 3.3557043 31.847967
1.4960089 3.3429761 31.74132
1.4377518 3.3420486 31.729443
1.2444401 3.3294995 31.534388
1.186592 3.3286004 31.521976
1.1287938 3.3276908 31.50956
1.0710304 3.3267927 31.496944
1.0132982 3.3259008 31.484221
0.94571662 3.3269901 31.407082
0.87839913 3.3281016 31.329721
0.76369119 3.3263614 31.303427
0.70639956 3.3254929 31.290064
0.64915276 3.3246412 31.276608
0.59195101 3.3237832 31.263044
0.53478813 3.3229377 31.249273
0.47768107 3.3220911 31.235504
0.42061266 3.3212471 31.221527
-1.3535551 3.3350923 31.35034
-2.0138633 3.3661075 31.786745
1.2451248 3.2721376 31.531363
1.187295 3.2712429 31.519054
1.1294893 3.2703586 31.506536
0.94642401 3.2698138 31.403969
0.8791002 3.2710445 31.326614
0.76439226 3.2693412 31.300211
0.70710552 3.2684932 31.286858
0.64986289 3.2676501 31.273397
0.59265816 3.266818 31.259733
0.53550768 3.265976 31.246065
0.4783977 3.265156 31.232199
0.42133471 3.2643304 31.218225
-1.0168507 3.2588096 31.260368
-1.1294897 3.2574072 31.225683
-1.3527009 3.2777493 31.346399
-1.6807389 3.2926748 31.564007
-1.7371726 3.2920151 31.54517
-1.8410959 3.2862961 31.642567
1.5535653 3.2421091 31.776855
1.1301842 3.2130272 31.503511
0.94712174 3.2126367 31.400852
0.8798008 3.2139883 31.323502
0.76510108 3.2123137 31.297104
0.70781064 3.2114904 31.283651
0.65057194 3.2106674 31.270195
0.5933727 3.209846 31.256527
0.53621948 3.2090292 31.242762
0.47911337 3.2082198 31.228893
0.42205486 3.2074142 31.214914
-1.0160314 3.2016671 31.256437
-1.3518541 3.2204235 31.34236
-1.5716751 3.2270002 31.432514
-1.6798536 3.2349288 31.559937
-2.0120459 3.2497993 31.77816
1.5654461 3.1820965 31.839413
1.4980603 3.1698933 31.732693
1.4420211 3.1554525 31.691166
1.3622947 3.159143 31.549919
1.3043828 3.158283 31.537718
1.2465127 3.1574075 31.525412
1.1886752 3.156548 31.513002
1.1308793 3.1556942 31.500488
0.94781983 3.1554689 31.397739
0.88050103 3.1569412 31.320393
0.82312524 3.156116 31.307154
0.7658025 3.155302 31.293898
0.70851517 3.1544886 31.280443
0.65128136 3.1536758 31.266981
0.59408605 3.1528735 31.253319
0.53693759 3.1520779 31.239557
0.47982797 3.1512928 31.22559
0.42277452 3.1504989 31.211613
-1.3510178 3.1631072 31.338318
-1.7353991 3.17658 31.536938
-2.011137 3.1916447 31.77387
1.3629774 3.1017559 31.546991
1.3050758 3.1008945 31.534794
1.2472061 3.10005 31.522486
1.18936 3.0992064 31.509979
1.1315744 3.0983624 31.497461
0.94851518 3.0982871 31.394718
0.88119984 3.0998833 31.317284
0.82382894 3.0990887 31.304037
0.76650953 3.0982749 31.290791
0.70922697 3.097482 31.277334
0.65199018 3.0966945 31.263773
0.59479904 3.0959125 31.250114
0.53764713 3.0951316 31.236244
0.48055014 3.0943511 31.222382
0.42349312 3.0935922 31.208309
-1.0143836 3.0874057 31.248684
-1.1314909 3.0996997 31.243538
-1.3501637 3.1057754 31.334377
-1.6781003 3.1194627 31.551704
-1.8384022 3.1126418 31.629938
1.5668128 3.0663462 31.833807
1.5016085 3.0410633 31.697369
1.4325038 3.0427072 31.620779
1.3636707 3.0443671 31.544069
1.3057585 3.0435271 31.531866
1.2478912 3.0426879 31.519461
1.1900628 3.0418584 31.50705
1.1322693 3.0410299 31.494436
0.94194758 3.0303147 31.298149
0.88459218 3.0295253 31.284996
0.82727551 3.0287409 31.271753
0.77001083 3.0279465 31.258497
0.71278346 3.0271745 31.245041
0.65559363 3.0264022 31.231375
0.59845746 3.0256307 31.217714
0.54136026 3.0248795 31.203848
0.48431799 3.0241194 31.189974
0.42421177 3.0366759 31.205006
0.36720899 3.0359321 31.19083
-1.0255685 3.0355284 31.113991
-1.1261494 3.0290668 31.209982
-1.3493166 3.0484676 31.330341
-1.5690746 3.0545065 31.420258
-2.0093215 3.0753708 31.765388
0.31098267 2.978327 31.173248
0.19395164 2.9902208 31.172997
0.14041552 2.9762025 31.129486
0.023539305 2.9881351 31.128519
-0.033163875 2.9874504 31.113419
-0.089804783 2.9867678 31.098316
-0.14639884 2.9860954 31.08301
-0.25942752 2.9847724 31.051977
-0.3158533 2.9841168 31.036352
-0.41420573 2.9774518 31.13377
-0.5310657 2.9895046 31.130804
-0.58748877 2.9888768 31.114483
-0.64384484 2.98825 31.098146
-0.70014679 2.9876356 31.081615
-1.3484726 2.9911566 31.326399
-1.5632547 2.9834428 31.386135
-1.8366076 2.9969018 31.621592
2.0231524 2.9728823 32.230904
1.953634 2.961185 32.12347
1.8827231 2.9629586 32.046234
1.8120823 2.9647813 31.969372
1.7533255 2.9639149 31.958038
1.6737419 2.9549937 31.786152
0.36865327 2.922159 31.184225
0.31170937 2.9214511 31.169941
0.2548078 2.9207547 31.155458
0.19794902 2.9200764 31.140779
0.14114955 2.9193912 31.126085
0.02770105 2.9180422 31.096289
-0.028947145 2.917388 31.08119
-0.085541517 2.9167314 31.065983
-0.14208102 2.9160776 31.050671
-0.19856529 2.9154322 31.035248
-0.25500023 2.9147959 31.019634
-0.69936049 2.9308209 31.077908
-0.91156173 2.9228501 31.140745
2.321892 2.9311988 32.667175
2.2379527 2.9222527 32.491005
2.1673226 2.9105861 32.383064
2.0954001 2.9124653 32.305599
1.8852568 2.8913515 32.013947
1.8146577 2.8932991 31.936991
1.7559614 2.8924432 31.925653
1.674419 2.8971949 31.783401
0.36938259 2.8652682 31.181021
0.31243512 2.8645849 31.166641
0.19868538 2.8632419 31.137472
0.14189145 2.8625755 31.122787
0.028445274 2.8612709 31.09289
-0.58592683 2.8751485 31.107264
-0.64227712 2.8745673 31.090837
-0.69857496 2.8739967 31.074202
-0.91075444 2.8659124 31.13693
2.4087603 2.8670995 32.810955
2.1680088 2.8518078 32.380665
2.0960789 2.8538218 32.303112
1.8153324 2.8352556 31.934328
1.7566454 2.8344197 31.922993
1.675097 2.839407 31.780655
0.37010321 2.8083813 31.177715
0.31316051 2.8077188 31.163336
0.19942114 2.8064156 31.134169
0.14262423 2.8057735 31.119387
0.029188007 2.8045106 31.089495
-0.027449101 2.8038871 31.074396
-0.14056861 2.8026619 31.043777
-0.19704917 2.8020611 31.028265
-0.25347295 2.8014641 31.012648
-0.30984086 2.8008745 30.996916
-0.43007022 2.8259997 31.022762
-0.58514643 2.8182886 31.103659
-0.64149868 2.8177321 31.08713
-0.69778192 2.8171773 31.070595
-0.81017536 2.8161042 31.03702
2.4094424 2.8076062 32.808609
2.1561663 2.7960391 32.311295
2.0967581 2.7951682 32.300613
2.0251844 2.7973018 32.223244
1.9574721 2.7728479 32.085526
1.8866224 2.7750201 32.008705
1.8160174 2.7772222 31.931669
1.7573199 2.7763863 31.92033
0.37083057 2.7515001 31.174511
0.31388542 2.7508523 31.160036
0.20015594 2.7495894 31.130873
0.14336398 2.7489591 31.116083
0.029931337 2.7477396 31.086098
-0.026701331 2.7471359 31.070995
-0.13981752 2.7459559 31.040281
-0.6969974 2.7603726 31.066893
-0.80937839 2.7593398 31.033314
-0.90913391 2.7520301 31.129402
2.3239262 2.753449 32.660007
2.2415552 2.7320032 32.453079
2.1693649 2.7342515 32.37566
1.8754189 2.7199955 31.940342
1.8166993 2.719173 31.929108
1.746449 2.7214863 31.852247
1.6764495 2.7238157 31.775265
0.31461796 2.6939907 31.156834
0.20088956 2.6927629 31.127569
0.14410278 2.6921518 31.112785
-0.58358741 2.7045689 31.096441
-0.69620544 2.7035637 31.063286
-0.80857408 2.7025802 31.029709
-0.90832102 2.695097 31.125687
2.4108174 2.6886103 32.803928
2.1700437 2.6754777 32.373165
2.0981157 2.6778615 32.295628
1.8173745 2.6611302 31.926451
1.747124 2.6635735 31.849592
1.6771346 2.6660221 31.772615
0.37228462 2.637727 31.168108
0.31534931 2.6371193 31.153631
0.136574 2.6386662 31.04542
0.031421274 2.6342125 31.079399
-0.025207579 2.6336546 31.064199
-0.13830173 2.6325555 31.033489
-0.19477355 2.6320186 31.017874
-0.2548826 2.644465 31.031096
-0.3112897 2.6439397 31.015274
-0.42777997 2.6558888 31.012171
-0.58280921 2.6477201 31.092838
-0.69541502 2.646754 31.059681
2.0987945 2.6192076 32.293137
2.0272036 2.621717 32.215687
1.9595277 2.5979722 32.077812
1.8886616 2.6005185 32.000908
1.8180666 2.6030812 31.923883
1.7477987 2.6056497 31.846937
1.6778102 2.6082277 31.769972
0.37300202 2.5808501 31.164804
0.31607112 2.5802631 31.150331
0.13731 2.5819707 31.042122
-0.024462253 2.5769138 31.060801
-0.1375455 2.5758543 31.03009
-0.58203197 2.5908799 31.089233
-0.6946249 2.5899541 31.056072
-0.80698311 2.5890722 31.022303
2.2436037 2.5552876 32.445858
2.1714063 2.5579104 32.368362
1.8893433 2.5423503 31.998341
1.8187411 2.5450387 31.921217
1.7484915 2.5477214 31.844385
1.678485 2.5504248 31.767319
0.30819348 2.5269208 31.083099
-0.42625251 2.5424986 31.005175
-0.58124721 2.5340242 31.08572
-0.69383562 2.5331542 31.052469
-0.75004011 2.5327256 31.035637
-0.80618054 2.5323124 31.018702
-0.90588772 2.5243144 31.114546
2.1720841 2.4991276 32.365856
2.1001494 2.5018864 32.288246
1.8194234 2.4869895 31.918663
1.7491665 2.4897981 31.841726
1.6791701 2.492631 31.764675
0.3744584 2.4670913 31.158493
0.31752983 2.4665489 31.143927
0.13878113 2.4685874 31.035536
-0.022965044 2.4634364 31.054108
-0.13603437 2.4624617 31.0233
-0.19616182 2.4748075 31.036512
-0.2526094 2.4743481 31.0208
-0.31277004 2.4867055 31.033815
-0.42548883 2.4858036 31.001682
-0.58046317 2.47718 31.082216
-0.6930474 2.4763551 31.048862
2.1602316 2.4440234 32.296627
2.1008282 2.443233 32.285751
2.017031 2.4497895 32.141766
1.9615788 2.4230759 32.070286
1.8788307 2.4296925 31.927532
1.8201058 2.4289405 31.916101
1.7498415 2.4318843 31.839079
1.6798453 2.4348271 31.762026
0.37518129 2.4102187 31.155294
0.30964789 2.4134271 31.076706
0.13952214 2.4118958 31.032347
-0.57968819 2.4203403 31.078608
-0.69225925 2.4195652 31.045259
-0.74845153 2.4191864 31.028429
-0.80458683 2.4188182 31.011395
2.3279955 2.3978636 32.645943
2.2456577 2.3785465 32.438728
2.1734469 2.3815494 32.361065
1.8795033 2.3716226 31.924976
1.8207884 2.3708918 31.913544
1.7505243 2.373955 31.836519
1.6805205 2.3770335 31.759378
-0.31125373 2.3732333 31.02702
-0.36763895 2.3728254 31.010906
-0.42395741 2.3724267 30.994787
-0.48021585 2.3720348 30.978561
-0.69147289 2.3627751 31.041658
-0.74765801 2.362416 31.024832
-0.80378771 2.3620784 31.00779
2.1615953 2.3266757 32.291843
2.1021922 2.3258951 32.280968
1.7512066 2.316026 31.833967
1.6812037 2.3192246 31.756832
0.3766335 2.2964704 31.148996
0.31109855 2.2999332 31.070316
0.14099622 2.2985265 31.025862
-0.033633143 2.3069508 30.977877
-0.14103496 2.3177073 31.071035
-0.19389562 2.3046401 31.026426
-0.25406697 2.3168919 31.039534
-0.31049758 2.3165028 31.023626
-0.36687693 2.3161144 31.007507
-0.4231891 2.3157353 30.991392
-0.47944954 2.3153687 30.975065
-0.59178841 2.3146617 30.94211
2.4025075 2.2760901 32.719887
2.1622713 2.2679961 32.289444
2.1028678 2.2672267 32.278576
2.0190496 2.2745073 32.134331
1.9617934 2.2609668 32.093044
1.8808661 2.2554901 31.919945
1.8221431 2.2547848 31.908419
1.7518895 2.2580967 31.831415
1.6818793 2.2614207 31.754187
0.30320981 2.2472398 31.00313
0.24657741 2.2467837 30.988436
0.13345134 2.2459099 30.958542
-0.47868299 2.2587137 30.971573
-0.59101009 2.2580459 30.938614
-0.68989348 2.2492006 31.03455
-0.7460745 2.2488976 31.01762
-0.80219078 2.2485993 31.000587
2.3900926 2.2208409 32.649483
2.2477019 2.2017903 32.431705
2.1629474 2.2093077 32.287052
1.8815479 2.1974311 31.917387
1.8228257 2.1967359 31.905855
1.7525723 2.2001677 31.828859
1.6825621 2.2036221 31.751635
-0.30898657 2.2030511 31.016829
-0.36535352 2.2027025 31.000717
-0.42166179 2.2023802 30.984499
-0.47791079 2.2020528 30.968176
-0.59023356 2.201441 30.935122
-0.68910271 2.1924155 31.031042
-0.74527562 2.1921415 31.014116
2.1636322 2.1506228 32.284756
2.1042209 2.1498883 32.273785
1.7532451 2.1422381 31.826307
1.6832374 2.1458173 31.748989
0.37881526 2.1258481 31.13969
0.3046616 2.1339707 30.996849
0.24803063 2.1335595 30.982059
0.13492543 2.1327662 30.952168
0.075023025 2.1448615 30.965557
-0.029933929 2.1398323 30.998877
-0.19533229 2.1469831 31.045341
-0.30823129 2.1463196 31.013432
-0.36459309 2.1460013 30.997324
-0.42089641 2.1456981 30.981104
-0.47714642 2.1453972 30.964684
-0.58945715 2.1448357 30.931625
2.1643083 2.091934 32.28236
2.0925648 2.095572 32.204781
2.0210829 2.0992157 32.127083
1.9619646 2.0985136 32.115879
1.8829083 2.0812829 31.912466
1.8241961 2.0806177 31.900938
1.7539279 2.0843098 31.823755
1.6839204 2.0880091 31.746441
0.30539051 2.077343 30.993761
0.24876413 2.0769525 30.978968
-0.36383399 2.0893106 30.993925
-0.42013162 2.0890176 30.977703
-0.47637516 2.0887463 30.961287
-0.58868164 2.0882301 30.928135
-0.68752146 2.0788653 31.024035
-0.74368972 2.0786362 31.007015
-0.80402839 2.0909243 31.01893
-0.9204818 2.1030121 31.013321
2.3921418 2.0429487 32.642902
2.3320739 2.0421903 32.632393
2.2497518 2.025008 32.424789
2.1649816 2.0332499 32.28006
1.8248687 2.022558 31.898378
1.7430198 2.0308275 31.755745
1.6846029 2.0301995 31.743895
-0.1938332 2.0334508 31.03874
-0.30671838 2.0328822 31.006735
-0.36306819 2.0326033 30.990629
-0.41936713 2.0323467 30.974314
-0.47560596 2.0320954 30.957891
-0.58789921 2.0316188 30.924744
-0.68673205 2.0220897 31.020535
2.1656675 1.9745555 32.277767
2.0939155 1.9784381 32.200108
1.7437005 1.9730034 31.753302
1.6852763 1.9723897 31.74135
0.30684415 1.9640775 30.987583
0.25022039 1.9637322 30.972694
0.13712928 1.9630585 30.942614
0.07722494 1.9750547 30.955988
-0.03564924 1.9744408 30.92518
-0.19308507 1.9766946 31.03544
-0.30595842 1.9761658 31.003437
-0.36231121 1.975913 30.987228
-0.41860387 1.9756758 30.970917
-0.47483644 1.9754436 30.9545
2.3934934 1.9243402 32.638451
2.0822606 1.9245551 32.131241
2.0231123 1.9238925 32.120041
1.9437006 1.9076958 31.916601
1.8849487 1.9070599 31.905077
1.8262396 1.9064398 31.893457
1.7443836 1.9151742 31.750751
1.685967 1.9145758 31.738901
0.3642408 1.9077802 30.999273
0.30756995 1.9074497 30.984497
-0.36154631 1.9192166 30.983934
-0.41783398 1.9190094 30.967621
-0.47406837 1.9188035 30.951105
-0.5863452 1.9184222 30.917862
-0.68514907 1.9085438 31.013634
-0.74550992 1.9207418 31.025545
-0.80165297 1.9205942 31.008322
-0.86203301 1.9328032 31.020041
-0.9180944 1.9326673 31.002604
2.3941722 1.865036 32.636318
2.334116 1.8643236 32.625698
2.251792 1.8482106 32.417965
2.1670263 1.8571665 32.27319
1.885637 1.8489802 31.902716
1.7450645 1.8573492 31.748301
1.6752533 1.861537 31.671204
-0.094118208 1.8732898 30.931686
-0.20674796 1.8728194 30.900072
-0.3044422 1.8627329 30.996847
-0.36078304 1.8625298 30.98064
-0.41707265 1.8623378 30.964228
-0.47329327 1.8621564 30.947807
-0.52946043 1.8619857 30.931192
-0.58556581 1.8618312 30.914467
2.1677003 1.7984622 32.270893
1.7457452 1.7995145 31.745853
1.6873207 1.7989516 31.73391
0.36247835 1.8066444 31.021746
0.30901894 1.7941935 30.978321
0.24910042 1.8060637 30.991989
0.19584486 1.7936351 30.948347
0.13593316 1.8055155 30.961817
0.07942605 1.8052628 30.946524
-0.036979198 1.8169279 30.944201
-0.093377724 1.8166971 30.928499
-0.20599693 1.8162773 30.896883
-0.30368555 1.8060167 30.993549
-0.360021 1.8058333 30.977343
-0.41630343 1.8056715 30.960936
-0.47252697 1.8055158 30.944422
-0.86044788 1.8192024 31.013029
-0.91649699 1.8191161 30.995602
2.1683838 1.7397676 32.268589
2.0842876 1.7491758 32.124294
1.9457366 1.7334113 31.909416
1.8869953 1.732816 31.897896
1.7464256 1.7416899 31.743404
1.688004 1.7411427 31.731358
0.36640605 1.7378414 30.99011
0.30974957 1.7375607 30.975332
-0.30292958 1.74931 30.990252
-0.35925916 1.7491469 30.974051
-0.47175381 1.748879 30.941126
-0.52791691 1.748754 30.92441
-0.58401036 1.7486489 30.907682
-0.7431469 1.7503603 31.015133
-0.8596499 1.7624016 31.009624
-0.91569948 1.762351 30.9921
2.2538464 1.6713824 32.411331
2.169066 1.6810577 32.266399
1.9464242 1.675312 31.907049
1.8876755 1.674732 31.895435
1.7471066 1.6838559 31.740959
1.6886847 1.6833283 31.728912
-0.091899633 1.7035329 30.922125
-0.2045048 1.7032084 30.890413
-0.35849911 1.6924706 30.970755
-0.47098961 1.6922383 30.937733
-0.52713895 1.6921375 30.921112
-0.58323473 1.6920578 30.904293
-0.73812836 1.6814388 30.9827
-0.91490304 1.7055857 30.988592
2.31422 1.6130729 32.419975
2.2545278 1.612433 32.409126
2.1697404 1.6223531 32.264103
1.7477775 1.6260209 31.73851
1.6893656 1.6255033 31.726467
1.6309854 1.6250012 31.714319
1.2969484 1.6435071 31.391731
1.2392423 1.6430852 31.378834
1.1815796 1.6426742 31.36573
1.0663805 1.6418834 31.339323
0.99885678 1.6466973 31.26148
0.82001495 1.6388386 31.127331
0.76293278 1.6385072 31.113489
0.70880818 1.6261971 31.07082
0.64889419 1.6378925 31.085285
0.59194636 1.637604 31.071028
0.53504777 1.6373205 31.056671
0.47819081 1.6370478 31.04211
0.42138454 1.6367915 31.027445
0.36785421 1.6245556 30.984131
0.25459692 1.6240898 30.954273
0.14154249 1.6236833 30.923895
0.085092813 1.6234956 30.908504
-0.027635008 1.6231425 30.877504
-0.47021851 1.6356015 30.934439
-0.7373324 1.6247081 30.9793
-0.85807109 1.6488216 31.002615
1.6203811 1.5725162 31.646749
1.5509791 1.577376 31.569258
1.4928949 1.5769104 31.556791
1.4348532 1.5764716 31.544212
1.3768538 1.5760278 31.531548
1.0049031 1.5656947 31.201077
0.82353616 1.570034 31.095928
0.76650822 1.5697231 31.082077
0.70951915 1.5694231 31.068024
0.65257037 1.5691442 31.053768
0.5956769 1.5688748 31.039515
-0.96321046 1.5866363 31.029385
-1.0783775 1.6054795 31.117369
-1.2915906 1.5948246 31.17662
1.6323471 1.5093918 31.709427
1.5516522 1.5198064 31.566721
1.4935784 1.5193613 31.554256
1.4355366 1.5189319 31.541683
-0.96240163 1.5297856 31.025976
-1.0685252 1.5243645 31.055557
-1.1896983 1.5486547 31.077515
-1.2907546 1.53769 31.173096
-1.6171386 1.5403256 31.386271
1.6217351 1.457132 31.641769
1.5523443 1.4622409 31.564289
1.4942603 1.4618061 31.551825
1.2989856 1.4716682 31.383976
1.2412912 1.4713018 31.370981
1.1861765 1.4590722 31.328892
1.0710814 1.4583926 31.302286
1.0036132 1.4635971 31.224258
0.93914342 1.4569888 31.118017
0.88202107 1.4566925 31.10428
0.82494712 1.4564106 31.090439
0.76791167 1.4561503 31.076393
0.71093059 1.4559007 31.062342
0.65100658 1.4674919 31.076702
0.59407175 1.4672625 31.062443
0.53717852 1.4670351 31.047987
0.48032758 1.4668375 31.033331
0.42353413 1.4666314 31.018667
0.36355206 1.4782853 31.032434
-0.96160293 1.4729509 31.022467
-1.0677116 1.4674697 31.052046
-1.5087004 1.4818604 31.256832
-1.6162816 1.4827971 31.382618
1.622416 1.3994379 31.639326
-0.95472753 1.4103174 31.084465
-1.1880649 1.4347444 31.070484
-1.2891102 1.4234362 31.165943
1.6231053 1.3417373 31.636986
1.5536889 1.3470964 31.559322
1.495625 1.3467019 31.546852
1.3003469 1.3571044 31.378839
-0.95999157 1.3592699 31.015654
-1.0660794 1.3536747 31.045122
-1.1872487 1.3777903 31.066965
-1.2882738 1.366312 31.162418
-1.6145744 1.3677659 31.375219
-2.0012355 1.3698642 31.568258
1.6237766 1.2840323 31.634546
1.5543704 1.2895217 31.55689
1.4963065 1.2891469 31.544422
1.3587661 1.3001564 31.389208
1.3034806 1.2881308 31.347256
1.2458364 1.287804 31.334253
1.1882371 1.2875085 31.321054
0.99299741 1.3100754 31.180731
0.93848372 1.2981315 31.138517
0.88132131 1.2979002 31.124685
0.82705057 1.2860031 31.08215
0.77002716 1.2857928 31.06811
0.71010232 1.2972791 31.08256
0.65312541 1.2970895 31.068317
0.59618843 1.2969215 31.053867
0.53930771 1.296764 31.03941
0.42568323 1.2964857 31.009995
-0.95918894 1.3024292 31.012249
-1.2874557 1.3092024 31.158791
-1.3994429 1.3097091 31.121254
-1.5061566 1.3099838 31.245924
-1.6137173 1.3102477 31.371569
-2.0003467 1.3119818 31.564487
1.6244649 1.2263319 31.632204
-1.1856354 1.2638999 31.059942
-1.2866296 1.2520878 31.155268
-1.3426545 1.2523632 31.136549
-1.3986065 1.2526441 31.117729
-1.61286 1.2527392 31.367924
1.6251361 1.1686271 31.629765
1.5557307 1.1743758 31.55212
1.4866798 1.1801047 31.474644
1.4178905 1.185859 31.397062
1.3601146 1.1855569 31.384171
-0.95758414 1.1887678 31.005434
-1.0681992 1.1947238 31.063921
-1.1288174 1.2066866 31.074842
-1.1848116 1.2069597 31.056522
-1.2857953 1.194968 31.15184
-1.6120125 1.1952305 31.364273
-1.9985671 1.1962427 31.556839
1.6258152 1.1109264 31.627426
1.5564121 1.1168009 31.549685
1.4873617 1.1226592 31.472223
1.4185719 1.1285338 31.394636
1.360797 1.1282511 31.381752
1.3030736 1.1279743 31.368763
1.245391 1.1277034 31.355669
1.1877341 1.1274631 31.342377
0.99777019 1.1276245 31.144249
0.94057024 1.1274376 31.13052
0.88341188 1.1272662 31.116688
0.82629657 1.1271057 31.102654
0.76922727 1.1269507 31.088518
0.71221387 1.1268158 31.074375
0.65524185 1.1266919 31.060032
0.59831023 1.1265891 31.045486
0.54143524 1.1264868 31.03093
0.42782971 1.1263342 31.001415
-0.95678449 1.1319473 31.002026
-1.284979 1.1378632 31.148323
-1.3409922 1.1381946 31.129499
-1.3969318 1.13854 31.110586
-1.5086164 1.1498889 31.264788
-1.6111553 1.1377325 31.360619
-1.9976795 1.1383703 31.553066
1.6151947 1.0595356 31.559814
1.5570912 1.0592204 31.54735
-1.18319 1.0930839 31.049597
-1.2841535 1.0807583 31.144793
-1.3401657 1.0811195 31.125978
-1.3960961 1.0814956 31.107063
1.6271727 0.99550647 31.62274
1.5577627 1.001636 31.544918
1.4887154 1.0077589 31.467371
1.4199187 1.0138984 31.3897
1.3621629 1.013636 31.376818
1.3044393 1.0133995 31.363825
1.2467501 1.0131733 31.350636
-0.95518148 1.0183003 30.995312
-1.0703493 1.0354623 31.082905
-1.1263949 1.0357955 31.064594
-1.1823752 1.0361435 31.046185
-1.8917347 1.03514 31.449484
-1.9959116 1.0226454 31.545527
1.6278515 0.93779552 31.620401
1.5584515 0.94405472 31.542587
1.4893943 0.95029849 31.465042
1.4206005 0.95657307 31.387278
1.362835 0.95633078 31.374397
1.3051138 0.95610958 31.361311
1.2499627 0.94452363 31.319166
1.1820292 0.95083541 31.24124
1.1169775 0.94580954 31.135036
1.0570817 0.95700723 31.150173
0.99984229 0.95686984 31.13645
0.94264448 0.95673811 31.122625
0.88548923 0.95662171 31.108696
0.82838917 0.95652115 31.094666
0.77133179 0.95642626 31.080524
0.71431625 0.95635259 31.066189
0.60043645 0.95624596 31.037306
0.54356039 0.95621461 31.022554
0.35263225 0.98057109 30.878279
-0.95437765 0.96147436 30.992006
-1.3384951 0.96697444 31.119034
-1.3944156 0.96740049 31.100117
-1.5060993 0.97790599 31.254177
-1.8908579 0.97745222 31.44582
-1.9950155 0.96478796 31.541853
1.6285303 0.88008535 31.618059
-1.1247816 0.92187876 31.057869
-1.1807569 0.92228287 31.039356
-1.3376613 0.90989435 31.11561
-1.8899906 0.91976392 31.442162
1.6292171 0.8223694 31.615824
1.5598102 0.82888401 31.537918
1.4907455 0.83539236 31.460285
1.4219624 0.84190679 31.382536
1.3641989 0.84170997 31.369556
1.2487984 0.8413527 31.343283
-0.9633168 0.86613727 30.948654
-1.1239792 0.86491823 31.054455
-1.1799344 0.8653568 31.036047
-1.5044284 0.86326706 31.247103
-1.889114 0.862086 31.438499
-1.9932405 0.84908777 31.53441
1.6298937 0.76465082 31.613577
1.5604792 0.77130038 31.535582
1.4914249 0.77792859 31.45796
1.4226341 0.78458416 31.380119
1.3648704 0.78440052 31.367134
1.3071595 0.78423089 31.354052
1.2494829 0.78407979 31.340767
1.1814998 0.7907719 31.262863
1.1137804 0.79749036 31.18474
1.0591488 0.7861836 31.142574
1.0019116 0.78610176 31.128756
0.9447242 0.78602797 31.114927
0.88758135 0.78597313 31.100901
0.77342677 0.78590453 31.07254
0.71343899 0.79707915 31.086882
0.53353417 0.80396003 30.978849
0.4112967 0.81090897 30.884903
0.35476258 0.81098735 30.869839
-1.1231703 0.80796862 31.051142
-1.1791297 0.80843049 31.032631
-1.3360106 0.79577231 31.108667
-1.3968024 0.80769765 31.118895
-1.832099 0.80377501 31.45513
1.6192653 0.71392357 31.546003
1.5611658 0.71370828 31.533348
1.5031097 0.71350557 31.520594
-1.1223617 0.7510165 31.047827
-1.1783173 0.75150615 31.029322
1.6199343 0.65631902 31.543669
1.5618353 0.65611976 31.531015
1.4927843 0.66300714 31.453312
1.4239941 0.66991651 31.375481
1.3662329 0.66977209 31.3624
1.1828668 0.67647904 31.257944
1.1151479 0.68345356 31.179832
0.5259217 0.69760746 30.909273
0.46929207 0.69770062 30.894409
0.41270646 0.69781327 30.879343
-0.96093249 0.69587082 30.938852
-1.0213169 0.70755839 30.949539
-1.1215554 0.69406849 31.044516
-1.1775131 0.69459087 31.025906
-1.8865057 0.68906593 31.427622
-1.9905815 0.67555511 31.523399
1.6206114 0.59870791 31.541435
1.5625222 0.59852487 31.52878
1.4824588 0.61272717 31.386036
1.4246739 0.61258167 31.373159
1.3669126 0.61245406 31.360081
1.1757871 0.61545175 31.162298
1.1184833 0.61539197 31.148788
1.0612142 0.61535156 31.135071
1.0039873 0.61532539 31.121254
0.94680166 0.61531287 31.107334
0.88966143 0.6153205 31.093214
0.72152281 0.6043967 31.021652
0.5266242 0.64101464 30.90659
0.46999875 0.64112854 30.891731
0.41341802 0.64126211 30.876665
-1.1207515 0.63712257 31.041201
-1.1767007 0.63767302 31.022594
-1.3335207 0.62459403 31.098505
-1.8856306 0.63139719 31.424065
-1.9896945 0.61772025 31.519733
1.6212878 0.54109484 31.5392
1.563199 0.54092866 31.52655
-1.0197297 0.59400535 30.943035
-1.1199484 0.58018059 31.037889
-1.1758887 0.58075804 31.019281
-1.5562532 0.57739621 31.210218
-1.6121774 0.57808685 31.190615
1.6219651 0.48348081 31.536968
1.5638762 0.4833318 31.524311
1.4838157 0.49801487 31.381491
1.426023 0.49790877 31.368519
1.3682724 0.49781609 31.355444
0.69819224 0.5274418 30.945383
0.52802444 0.52782989 30.901224
0.47140035 0.52799153 30.886265
0.41482803 0.52816671 30.871202
-0.95855248 0.52562761 30.92915
-1.0189421 0.53723627 30.939728
-1.1191378 0.52323502 31.034676
-1.5554093 0.52012426 31.206789
1.6226494 0.42586017 31.534832
1.5645531 0.4257327 31.522078
1.4844933 0.44065467 31.379271
1.426703 0.44057092 31.366198
1.3689522 0.44049627 31.353123
1.1752423 0.45537066 31.183727
1.1178811 0.45536962 31.170118
1.0605646 0.45538822 31.156313
1.0032982 0.4554168 31.142506
0.9460752 0.45546487 31.128489
0.88888454 0.4555285 31.11437
0.70825386 0.46329954 31.007044
0.52873051 0.4712334 30.898643
0.47211114 0.47141528 30.883682
0.41553542 0.47161674 30.868525
-1.1183379 0.46629894 31.031364
-1.2301286 0.46758598 30.99395
-1.3358994 0.4645099 31.117762
1.623327 0.36824411 31.532598
-1.017355 0.42369461 30.933325
-1.1175308 0.4093594 31.028152
-1.2293156 0.41070765 30.990643
-1.5537244 0.40558583 31.20002
-1.6096262 0.40636992 31.180317
-1.8260562 0.39990515 31.43022
1.6240011 0.31062084 31.53046
1.485841 0.32593504 31.374735
1.4280509 0.32588637 31.361662
1.3596109 0.33355829 31.283848
1.1766049 0.34128076 31.179014
1.1192461 0.34132177 31.165312
1.0619298 0.3413786 31.151506
1.0046656 0.34145072 31.1376
0.94744325 0.34153768 31.123585
0.8805604 0.34933683 31.045156
0.70026994 0.35746792 30.937626
0.64350629 0.3576456 30.922979
0.53013194 0.35804722 30.893377
0.47351322 0.35827616 30.878323
0.41695473 0.35851556 30.86326
-0.96066761 0.36628094 30.948427
-1.0165634 0.36692867 30.930124
-1.5528812 0.34832433 31.196583
-1.8251839 0.34221897 31.426754
1.624686 0.25299531 31.528324
1.4865184 0.26857191 31.372511
1.4287276 0.26854011 31.35944
1.3602886 0.27633974 31.281633
1.1772776 0.28423786 31.176611
1.119929 0.28429812 31.162907
1.0653358 0.27365768 31.120472
0.95095026 0.27386457 31.092442
0.88411784 0.28179482 31.014017
0.70096731 0.30080518 30.935139
0.64420831 0.30100369 30.920498
0.53083372 0.30145189 30.890791
0.47422013 0.30170184 30.87574
0.41765794 0.30196866 30.860577
-1.2276832 0.29695612 30.984121
-1.3383113 0.30411381 31.137108
2.3618078 0.17629546 32.307869
2.1616781 0.16993421 32.079018
2.0778925 0.18583071 31.934246
2.0190008 0.18563324 31.922361
1.9381473 0.19072932 31.748535
1.8795984 0.19057482 31.736414
1.8094163 0.19843453 31.658249
1.7394943 0.20630962 31.580469
1.6834792 0.19544542 31.538832
0.41836837 0.2454161 30.857998
0.36185583 0.24572504 30.842636
0.30540434 0.24604467 30.827272
0.18923005 0.25747147 30.824017
0.13636202 0.24710912 30.780352
0.020368993 0.25863081 30.776382
-0.13267387 0.24399835 30.85644
-0.24508126 0.2449494 30.823271
-0.30508167 0.25615531 30.834904
-0.36118609 0.25667161 30.818014
-0.41722852 0.25720242 30.80102
-0.52912414 0.25831503 30.766718
-0.74780309 0.26622567 30.883181
-0.90313363 0.2520043 30.960423
-1.0149776 0.25339773 30.923819
-1.2268732 0.24008167 30.980909
-1.4493303 0.24860385 31.095186
-1.5511984 0.2338002 31.189917
-1.6070979 0.23467955 31.17012
2.4746659 0.084557772 32.588909
2.3787382 0.087452352 32.312782
2.3062785 0.095431268 32.234097
2.2341876 0.10338682 32.155769
2.0823374 0.10607499 31.872637
2.0235558 0.10589683 31.860741
1.9408112 0.12200969 31.717104
1.8823152 0.12187856 31.704887
1.8121917 0.12985879 31.62722
1.7423222 0.13786942 31.549337
1.6841611 0.13779444 31.536793
1.4878703 0.15383565 31.368164
1.4300829 0.1538443 31.355
1.3616468 0.161906 31.277107
1.2934622 0.16999191 31.199093
1.0639861 0.17035532 31.1444
0.70235133 0.18748587 30.930071
0.64559984 0.18772465 30.915426
0.53223503 0.18826282 30.88563
0.47563037 0.1885559 30.870577
0.41906855 0.18887019 30.855318
0.36256811 0.18919522 30.840059
0.30611381 0.18954265 30.824596
0.1933693 0.19028419 30.793354
0.13707891 0.19067949 30.777576
0.024668694 0.19151849 30.745716
-0.12819529 0.17675453 30.825241
-0.24049294 0.17775863 30.792072
-0.29655504 0.17828822 30.775284
-0.3525548 0.17883468 30.758387
-0.4124811 0.19004077 30.76981
-0.52836812 0.20185947 30.763741
-0.682607 0.1874339 30.840984
-0.73849112 0.18808752 30.823282
-0.79863548 0.19948876 30.83383
-1.0096297 0.18592358 30.89184
-1.4485083 0.19151598 31.091866
-1.5503646 0.17654836 31.186483
-1.6062541 0.17745763 31.166687
0.70908773 0.10973042 30.871099
-0.58345282 0.14603746 30.74346
-1.3936343 12.5466 34.641003
-0.45950562 12.336882 35.225018
-0.51100975 12.262812 35.251225
-0.58472586 12.204407 35.190109
-1.6220033 12.849123 37.456867
-1.6982963 12.897975 37.518822
-0.60599315 12.156227 35.096329
-0.6472528 12.138187 35.172295
-0.65403557 12.058953 35.089859
-0.69508302 12.040242 35.163464
-0.072940737 10.535058 31.575577
0.55522668 10.522711 31.726208
0.50002086 10.500446 31.687214
0.38520822 10.496007 31.664986
0.27054295 10.491594 31.642246
0.21327004 10.489295 31.630722
0.098839968 10.484724 31.607256
0.041691869 10.48244 31.595419
-0.12951909 10.475343 31.55896
-0.18650134 10.472887 31.546595
-0.34271142 10.48838 31.637178
-0.45672408 10.483328 31.611441
-0.57055771 10.478304 31.585091
0.66858351 10.489644 31.771814
0.61539817 10.44724 31.704948
0.55789888 10.445111 31.694054
0.50044477 10.442975 31.683153
0.44302008 10.440859 31.672039
0.38563403 10.438645 31.660824
0.27097926 10.434232 31.63809
0.21371093 10.431932 31.626558
0.099282831 10.427363 31.602997
-0.45624062 10.425886 31.606873
-0.5700559 10.420856 31.580614
-0.7274043 10.43585 31.669554
-0.78432435 10.433165 31.655867
-0.84119081 10.430584 31.642078
-0.94254565 10.448091 31.744261
-1.0563773 10.442576 31.715872
-1.1132109 10.439825 31.701572
-1.1699905 10.437082 31.687067
0.80329466 10.458749 31.917534
0.74538124 10.456701 31.907074
0.38606265 10.381281 31.656666
0.27140984 10.376873 31.633831
0.21414647 10.374577 31.622299
0.099728644 10.370105 31.598736
0.042582184 10.367727 31.586794
-0.071580812 10.36309 31.562597
-0.12860461 10.360739 31.550243
-0.18558295 10.358386 31.537788
-0.34175113 10.373388 31.628231
-0.45574757 10.368439 31.6024
-0.56955981 10.363414 31.576044
-0.72688049 10.378209 31.664968
-0.78380084 10.375627 31.651182
-0.84066188 10.372947 31.637394
-0.94199395 10.390254 31.739563
-1.0558239 10.384847 31.711079
0.99355078 10.470018 32.130726
0.80369639 10.401077 31.913565
0.67157078 10.354568 31.735704
0.6162287 10.332508 31.696733
0.55873847 10.330376 31.685833
0.50128484 10.32825 31.674828
0.44387075 10.326131 31.663721
0.38649306 10.323917 31.65251
-0.84013116 10.315311 31.632704
-0.94144762 10.332525 31.734768
-1.0552607 10.327115 31.706284
-1.2712586 10.338579 31.778807
1.052302 10.413909 32.136852
0.99393773 10.412037 32.126839
0.920012 10.347322 31.930191
0.86203909 10.345357 31.919945
0.8040998 10.343304 31.90958
0.55916405 10.273007 31.68177
0.44429824 10.268765 31.659565
0.38692626 10.266553 31.648346
0.27228472 10.262154 31.625408
0.21503201 10.259956 31.613886
0.10062554 10.25539 31.590214
-0.45476228 10.25355 31.593359
-0.56855792 10.248529 31.566908
-0.72583961 10.263037 31.655605
-0.83959639 10.257778 31.628025
-1.0546975 10.269283 31.701487
-1.1682857 10.263898 31.672483
-1.2706647 10.280654 31.773895
1.2453151 10.424539 32.3503
1.186545 10.422646 32.340717
1.1212784 10.368946 32.208084
1.0526849 10.355929 32.132965
0.86244094 10.287686 31.915966
0.38736054 10.209189 31.644186
0.27272877 10.204789 31.621246
0.21547332 10.202596 31.609623
0.10107863 10.198133 31.585958
0.043939859 10.195861 31.573921
-0.07020767 10.191236 31.549522
-0.12721533 10.188881 31.537167
-0.18417828 10.186529 31.524702
-0.24109554 10.184087 31.512138
-0.34029302 10.20105 31.614819
-0.45426312 10.196104 31.58889
-0.51117849 10.193693 31.575718
-0.56805402 10.191193 31.562336
-0.62487245 10.188586 31.54895
-0.72530878 10.205394 31.651024
-0.78221029 10.202815 31.637236
-0.83905947 10.20024 31.62335
-0.95260036 10.194906 31.595249
-1.0541344 10.211554 31.696693
1.462574 10.457638 32.697575
1.4031763 10.455818 32.688557
1.3257282 10.390448 32.487823
1.1216605 10.310867 32.204189
1.053067 10.297852 32.12907
0.67059183 10.202188 31.751797
0.61749268 10.160307 31.684452
0.5600158 10.158278 31.673555
0.38779768 10.151831 31.640022
0.27316794 10.147532 31.616991
0.21591744 10.14534 31.605366
-0.78167766 10.145281 31.632557
-0.83852148 10.142603 31.618666
-0.95205617 10.137377 31.590473
-1.0535707 10.153823 31.6919
-1.1671369 10.148447 31.662796
-1.2694836 10.16481 31.763985
1.6014187 10.46606 32.904884
1.533511 10.411797 32.76992
1.3261127 10.331859 32.484104
1.2460682 10.307769 32.342785
1.0534679 10.239866 32.125282
0.98520613 10.227044 32.050247
0.9212178 10.174194 31.918364
0.86325037 10.172241 31.908014
0.37957308 10.083936 31.572186
0.21636388 10.087982 31.601105
0.10198134 10.083521 31.577341
0.044852823 10.081251 31.565298
-0.069273815 10.076626 31.540899
-0.12627792 10.074373 31.52845
-0.18322946 10.072021 31.515993
-0.24014424 10.069686 31.503325
-0.34657124 10.075538 31.541779
-0.45326453 10.081313 31.579849
-0.51017702 10.078809 31.566572
-0.56703138 10.076401 31.553297
-0.6238457 10.073806 31.53981
-0.72425437 10.09022 31.641657
-0.83798075 10.085068 31.613985
-0.9515028 10.079841 31.585791
-1.0530049 10.096096 31.687008
-2.2310822 11.002888 35.155113
-2.3018196 10.996529 35.055305
1.8138411 10.487509 33.190128
1.744565 10.433025 33.053959
1.522742 10.341566 32.699318
1.2464545 10.249377 32.339077
1.1876872 10.247592 32.329399
1.112234 10.183664 32.131302
1.0538595 10.181789 32.121384
0.86365819 10.114565 31.904039
0.72904885 10.089281 31.754549
0.21681151 10.030626 31.596844
0.10243925 10.026264 31.57308
0.045316517 10.023993 31.561037
-0.068807006 10.01937 31.536545
-0.12580605 10.017119 31.524092
-0.18275996 10.014772 31.511536
-0.23966858 10.012435 31.498867
-0.35334602 10.007672 31.473225
-0.50966346 10.02146 31.562107
-0.56652093 10.01896 31.548725
-0.62332869 10.01646 31.535242
-0.72372377 10.032684 31.636972
-0.83744502 10.027536 31.609203
1.946877 10.442574 33.271431
1.523122 10.282674 32.695686
1.3859261 10.216488 32.485912
1.326883 10.214684 32.476563
1.112627 10.125688 32.127411
1.0542524 10.123811 32.1175
0.99590087 10.121848 32.107376
0.78713167 10.033848 31.761269
0.72945952 10.031807 31.750586
0.67182302 10.029772 31.739805
0.61422372 10.027739 31.728922
0.56130409 9.9861803 31.661171
0.38044962 9.9695072 31.563881
0.21726248 9.9733629 31.592588
0.1028997 9.9689054 31.568817
0.045773953 9.9666386 31.556675
-0.23918343 9.9551821 31.494511
-0.3528578 9.9504261 31.468765
-0.50915718 9.9640179 31.557535
-0.56600821 9.9616165 31.544157
-0.62280893 9.9591208 31.530676
-0.72319126 9.97505 31.632294
-0.83689928 9.9700003 31.604525
-0.95040441 9.9647789 31.576223
-1.108665 9.9780035 31.662819
-1.1653922 9.9753647 31.648216
-1.2757504 10.031568 31.808355
1.6623002 10.29 32.902805
1.5829339 10.22551 32.700867
1.5234842 10.223786 32.691952
1.3059901 10.134502 32.341034
1.247211 10.132712 32.331463
1.0546443 10.06573 32.113605
0.9764781 10.042747 31.973801
0.92243409 10.001076 31.906439
0.86447823 9.9991198 31.896084
0.78753984 9.9763727 31.757299
0.38089028 9.9122448 31.559719
0.21772239 9.9160995 31.58843
0.046241909 9.909379 31.552422
-0.067867786 9.9048653 31.527828
-0.12485582 9.9026136 31.515375
-0.18179983 9.9002695 31.50281
-0.23870501 9.897934 31.490049
-0.35236761 9.893178 31.4643
-0.50864851 9.9066753 31.552965
-0.56549323 9.9041748 31.539581
-0.62229574 9.9017849 31.526011
-0.72264928 9.9175062 31.627707
-0.83635187 9.9124641 31.599842
-0.89312482 9.9098988 31.585749
-0.94984305 9.907341 31.571547
2.2382286 10.416149 33.632397
2.1519706 10.391671 33.486015
2.0080693 10.324533 33.272488
1.8658433 10.257929 33.059975
1.782335 10.234081 32.91642
1.5833042 10.166617 32.697231
1.5017381 10.143077 32.555149
1.3063762 10.076214 32.337326
1.2475967 10.074424 32.327751
1.171814 10.011501 32.129639
1.113409 10.009626 32.119724
1.0550367 10.007753 32.109711
0.86489129 9.9414454 31.892109
0.78795016 9.9188976 31.75334
0.73027909 9.9168615 31.742559
0.67265224 9.9149265 31.731785
0.56217563 9.8714476 31.652954
0.3813338 9.8550777 31.555569
0.27540985 9.8609314 31.595894
0.20984176 9.8486052 31.520575
